% x y z r p yw  738339.430768508
-0.13604821264743805 -0.07364384084939957 0.499379962682724 0.3356027603149414 -1.2502541542053223 2.968852996826172  738339.4312778333
-0.13566996157169342 -0.07349273562431335 0.4989411532878876 0.3476196825504303 -1.2539997100830078 3.0554444789886475  738339.4312779488
-0.13526973128318787 -0.07334636151790619 0.4985133409500122 0.3522564172744751 -1.2225215435028076 3.1391818523406982  738339.4312782184
-0.13484780490398407 -0.07320484519004822 0.49809446930885315 0.3576115667819977 -1.1418572664260864 3.245098352432251  738339.4312782368
-0.13674724102020264 -0.07435347884893417 0.4973786473274231 0.3893899619579315 -1.1285814046859741 3.3036506175994873  738339.431278309
-0.1363091915845871 -0.07426048070192337 0.49695485830307007 0.3481425940990448 -1.0814653635025024 3.4011926651000977  738339.4312784221
-0.1358516663312912 -0.07417270541191101 0.4965423047542572 0.29041916131973267 -1.0388609170913696 3.486551523208618  738339.4312785376
-0.13537554442882538 -0.07408928871154785 0.4961375296115875 0.20454733073711395 -1.0225591659545898 3.5888710021972656  738339.4312786531
-0.13488151133060455 -0.0740089863538742 0.49573421478271484 0.09636351466178894 -0.9910179376602173 3.683075189590454  738339.4312787685
-0.1343700885772705 -0.07393012940883636 0.49533209204673767 -0.009859715588390827 -0.9547079801559448 3.790530204772949  738339.431278884
-0.1338420808315277 -0.07385089993476868 0.4949248731136322 -0.13722167909145355 -0.9882113337516785 3.884593963623047  738339.4312789993
-0.1332976073026657 -0.07376929372549057 0.49451494216918945 -0.27211907505989075 -0.9983581304550171 4.003324508666992  738339.4312791033
-0.13494747877120972 -0.07450622320175171 0.49397698044776917 -0.29200437664985657 -0.964717447757721 4.0927252769470215  738339.4312792334
-0.13439974188804626 -0.07445564866065979 0.4936079680919647 -0.3776155412197113 -0.9034971594810486 4.216465950012207  738339.4312793538
-0.13383609056472778 -0.07439792156219482 0.4932665228843689 -0.46280574798583984 -0.8222650289535522 4.336032390594482  738339.4312794626
-0.1332581490278244 -0.07433179765939713 0.4929335415363312 -0.492477685213089 -0.7030912637710571 4.462547779083252  738339.4312795801
-0.13266786932945251 -0.0742565169930458 0.49259769916534424 -0.5156964063644409 -0.6111034154891968 4.577503204345703  738339.4312796956
-0.13206708431243896 -0.07417173683643341 0.49226024746894836 -0.5130456686019897 -0.6000091433525085 4.69883394241333  738339.4312797994
-0.13145658373832703 -0.07407721132040024 0.49193429946899414 -0.5081453919410706 -0.5807842016220093 4.825291156768799  738339.4312799149
-0.13083651661872864 -0.07397286593914032 0.49163368344306946 -0.4622279107570648 -0.5286701917648315 4.927797317504883  738339.4312800303
-0.13020749390125275 -0.07385919243097305 0.4913601279258728 -0.4025312066078186 -0.4898151457309723 5.051504135131836  738339.4312801458
-0.12957027554512024 -0.07373720407485962 0.4911094307899475 -0.3606213629245758 -0.48779308795928955 5.138693809509277  738339.4312802728
-0.128925159573555 -0.07360782474279404 0.49087777733802795 -0.3004498779773712 -0.513528048992157 5.252233028411865  738339.4312805055
-0.12827183306217194 -0.07347188889980316 0.4906693398952484 -0.2537897527217865 -0.5568971037864685 5.334165096282959  738339.4312805283
-0.1304851621389389 -0.07207014411687851 0.4905441999435425 -0.31504136323928833 -0.617362380027771 5.3938093185424805  738339.4312806096
-0.12980186939239502 -0.07185328006744385 0.4903765022754669 -0.27994734048843384 -0.6711283922195435 5.487872123718262  738339.431280747
-0.12916938960552216 -0.07164952903985977 0.49025025963783264 -0.23508858680725098 -0.656696617603302 5.544174671173096  738339.4312808503
-0.12852589786052704 -0.07144023478031158 0.4901354908943176 -0.1966949701309204 -0.6237064599990845 5.6323018074035645  738339.4312809542
-0.1278718113899231 -0.07122614979743958 0.4900261163711548 -0.17874449491500854 -0.5916664600372314 5.685520648956299  738339.4312810696
-0.12720754742622375 -0.07100777328014374 0.4899310767650604 -0.17153021693229675 -0.5208572745323181 5.750828742980957  738339.431281185
-0.12653401494026184 -0.07078541070222855 0.48984867334365845 -0.14768803119659424 -0.4256249964237213 5.7993483543396  738339.431281312
-0.1258525848388672 -0.07055944949388504 0.4897831082344055 -0.13549473881721497 -0.3404928147792816 5.838461875915527  738339.4312814159
-0.1251647174358368 -0.07033032178878784 0.48974767327308655 -0.1132303774356842 -0.24685075879096985 5.874688625335693  738339.4312815515
-0.1264791190624237 -0.06902625411748886 0.4895971119403839 -0.10937708616256714 -0.26507359743118286 5.899166584014893  738339.4312816561
-0.1264791190624237 -0.06902625411748886 0.4895971119403839 -0.10937708616256714 -0.26507359743118286 5.899166584014893  738339.4312817788
-0.12578913569450378 -0.06876390427350998 0.4896036982536316 -0.06875979900360107 -0.22074998915195465 5.933404445648193  738339.4312818792
-0.12509511411190033 -0.06849958747625351 0.48962774872779846 0.0003976841107942164 -0.15190479159355164 5.946496963500977  738339.4312820062
-0.12439794838428497 -0.06823436170816422 0.4896659553050995 0.03462299332022667 -0.09395834058523178 5.979079246520996  738339.4312821216
-0.1236986443400383 -0.06796921789646149 0.4897140860557556 0.04850226640701294 -0.09549593925476074 6.00408935546875  738339.431282237
-0.12299764901399612 -0.06770461797714233 0.4897654354572296 0.03979291021823883 -0.12878084182739258 6.01462459564209  738339.4312823525
-0.12229465693235397 -0.06744056940078735 0.4898206889629364 0.02346048690378666 -0.16944262385368347 6.0303144454956055  738339.4312824679
-0.12158907949924469 -0.06717678904533386 0.4898728132247925 0.009013048373162746 -0.2792379558086395 6.036210536956787  738339.4312825834
-0.12087970227003098 -0.06691288948059082 0.4899156987667084 -0.0012996797449886799 -0.3433271646499634 6.043375015258789  738339.431282856
-0.12016507983207703 -0.06664849817752838 0.489949107170105 0.015333414077758789 -0.40237921476364136 6.055689811706543  738339.4312829139
-0.12266860157251358 -0.06528107821941376 0.4894932806491852 0.06022081896662712 -0.4397435486316681 6.077718257904053  738339.431282937
-0.12201625108718872 -0.0650152638554573 0.4894866347312927 0.07847431302070618 -0.4968533217906952 6.070754051208496  738339.4312830798
-0.12135598808526993 -0.06474977731704712 0.48946014046669006 0.09893845021724701 -0.5395236611366272 6.0773162841796875  738339.4312831588
-0.12068689614534378 -0.0644848421216011 0.4894178807735443 0.11628267168998718 -0.5789122581481934 6.07337760925293  738339.4312832974
-0.12000823020935059 -0.06422071903944016 0.4893620014190674 0.14652019739151 -0.5729716420173645 6.058837413787842  738339.4312833897
-0.11931964010000229 -0.06395776569843292 0.4892946779727936 0.17522595822811127 -0.5910040140151978 6.043679237365723  738339.4312834936
-0.11862097680568695 -0.0636964812874794 0.4892154932022095 0.20065678656101227 -0.5763325095176697 6.037322044372559  738339.4312836207
-0.1179121807217598 -0.0634373128414154 0.4891224801540375 0.22790421545505524 -0.5280009508132935 6.014286041259766  738339.431283736
-0.11719362437725067 -0.06318078935146332 0.4890258312225342 0.2464686930179596 -0.4858311712741852 5.991993427276611  738339.431283862
-0.11834846436977386 -0.060830358415842056 0.4885222613811493 0.2582971155643463 -0.4652387499809265 6.009376525878906  738339.431283966
-0.11763083934783936 -0.06054486334323883 0.48842862248420715 0.25336477160453796 -0.3767380118370056 5.979798793792725  738339.4312840728
-0.11690551787614822 -0.0602630153298378 0.4883456528186798 0.24069811403751373 -0.28601449728012085 5.950132846832275  738339.4312841997
-0.11617401242256165 -0.05998486652970314 0.48828402161598206 0.20708608627319336 -0.19353802502155304 5.9297895431518555  738339.4312843152
-0.11543799191713333 -0.05971015617251396 0.48823902010917664 0.17218025028705597 -0.10057446360588074 5.9107255935668945  738339.4312844306
-0.1146991178393364 -0.05943843349814415 0.4882005453109741 0.14305339753627777 0.011067366227507591 5.874799728393555  738339.431284546
-0.11395921558141708 -0.05916934832930565 0.4881749451160431 0.08184708654880524 0.08009848743677139 5.83850622177124  738339.4312846615
-0.11321992427110672 -0.05890227109193802 0.48816367983818054 0.020286234095692635 0.14998699724674225 5.818844795227051  738339.4312847769
-0.11248253285884857 -0.058636266738176346 0.48816055059432983 -0.015549739822745323 0.1934850811958313 5.776598930358887  738339.4312848923
-0.11174806952476501 -0.058370593935251236 0.48815974593162537 -0.06358805298805237 0.22754600644111633 5.744654655456543  738339.4312850077
-0.11101727187633514 -0.05810460448265076 0.48816192150115967 -0.09269251674413681 0.2515898048877716 5.709503173828125  738339.431285141
-0.11255457997322083 -0.05540357530117035 0.48767831921577454 -0.06590520590543747 0.2937956750392914 5.718160629272461  738339.4312852415
-0.11185804009437561 -0.05510225519537926 0.4876934587955475 -0.0704965591430664 0.3748745620250702 5.6757707595825195  738339.4312853639
-0.11116740107536316 -0.054800331592559814 0.487720251083374 -0.04809239134192467 0.4196392297744751 5.655656814575195  738339.4312854727
-0.11048368364572525 -0.05449806526303291 0.48775455355644226 -0.04307589679956436 0.49301353096961975 5.604355812072754  738339.4312855916
-0.10980784147977829 -0.05419578403234482 0.4877910614013672 -0.03400212153792381 0.512526273727417 5.571576118469238  738339.4312857029
-0.10914070159196854 -0.05389368161559105 0.4878348410129547 -0.026158243417739868 0.5290011763572693 5.538978099822998  738339.4312858187
-0.10848259925842285 -0.053591933101415634 0.48789119720458984 0.022852888330817223 0.6346582174301147 5.504366874694824  738339.431285934
-0.10783443599939346 -0.053291112184524536 0.4879485070705414 0.06808153539896011 0.717674732208252 5.480284690856934  738339.4312860491
-0.10719767212867737 -0.05299215763807297 0.48800238966941833 0.07849935442209244 0.7768977284431458 5.433457374572754  738339.4312861532
-0.10837128013372421 -0.0497155524790287 0.4874958097934723 0.08332819491624832 0.8019232153892517 5.440123558044434  738339.4312862844
-0.1077718436717987 -0.04937080666422844 0.48753783106803894 0.09086886048316956 0.8265154957771301 5.396480083465576  738339.4312864006
-0.10718640685081482 -0.0490289069712162 0.48759761452674866 0.07618189603090286 0.8359201550483704 5.348669528961182  738339.4312865176
-0.1066153272986412 -0.04868980497121811 0.4876793920993805 0.11285271495580673 0.9239317774772644 5.312398433685303  738339.4312866351
-0.10605938732624054 -0.04835377261042595 0.48777836561203003 0.14488238096237183 0.9966979622840881 5.247223854064941  738339.4312867486
-0.10551988333463669 -0.04802149906754494 0.48789194226264954 0.14469119906425476 1.0131969451904297 5.20629358291626  738339.4312868557
-0.10499749332666397 -0.047693297266960144 0.4880170524120331 0.15218161046504974 1.040919542312622 5.156651496887207  738339.4312869827
-0.10449245572090149 -0.04736921563744545 0.4881458282470703 0.14408089220523834 1.0491348505020142 5.101477146148682  738339.4312870981
-0.10400514304637909 -0.04704927280545235 0.48828136920928955 0.14348627626895905 1.0582797527313232 5.04642391204834  738339.4312873041
-0.10353577882051468 -0.04673340171575546 0.4884272813796997 0.16232585906982422 1.1215521097183228 4.986817836761475  738339.4312873579
-0.10530156642198563 -0.042689185589551926 0.4880846440792084 0.12075803428888321 1.1743707656860352 4.991922378540039  738339.4312874317
-0.10491035133600235 -0.04229922965168953 0.48821261525154114 0.13672520220279694 1.1925207376480103 4.930728435516357  738339.4312875537
-0.10453927516937256 -0.0419132262468338 0.4883471727371216 0.14374426007270813 1.2162505388259888 4.878596782684326  738339.4312876735
-0.1041889414191246 -0.04153144359588623 0.48850056529045105 0.1390760838985443 1.1956931352615356 4.8064985275268555  738339.4312877897
-0.10385945439338684 -0.041153885424137115 0.4886770248413086 0.14134842157363892 1.134336233139038 4.750699520111084  738339.4312879052
-0.10354982316493988 -0.04078039899468422 0.4888627231121063 0.18883392214775085 1.1486772298812866 4.673195838928223  738339.4312880208
-0.10325953364372253 -0.0404113307595253 0.4890526235103607 0.25050225853919983 1.162520170211792 4.619610786437988  738339.431288135
-0.10298887640237808 -0.04004766419529915 0.4892529845237732 0.27672702074050903 1.1085543632507324 4.554649353027344  738339.4312882515
-0.10273736715316772 -0.03969007730484009 0.4894603490829468 0.2973755896091461 1.074650764465332 4.486172676086426  738339.4312883787
-0.10250413417816162 -0.0393388494849205 0.4896688163280487 0.3130672574043274 1.0833755731582642 4.4316840171813965  738339.431288604
-0.10228899121284485 -0.03899427875876427 0.4898811876773834 0.3080160319805145 1.0513999462127686 4.351040840148926  738339.431288624
-0.10382972657680511 -0.03503949195146561 0.4895157516002655 0.31188488006591797 1.0150243043899536 4.3468708992004395  738339.4312887047
-0.10367872565984726 -0.03465501591563225 0.48972615599632263 0.3002602458000183 0.9861326217651367 4.274420738220215  738339.4312888202
-0.10354442149400711 -0.03427702933549881 0.48993656039237976 0.28428271412849426 0.9950180649757385 4.242722988128662  738339.4312889439
-0.10342652350664139 -0.033905234187841415 0.490138441324234 0.2712894678115845 1.0207350254058838 4.188813209533691  738339.4312890506
-0.10332536697387695 -0.03353939577937126 0.4903334677219391 0.24558760225772858 1.0808476209640503 4.139885425567627  738339.4312891768
-0.10324176400899887 -0.03317923843860626 0.4905241131782532 0.21619535982608795 1.1150689125061035 4.110929489135742  738339.4312892911
-0.10317644476890564 -0.0328243188560009 0.4907052218914032 0.18711453676223755 1.0957063436508179 4.063222885131836  738339.4312894137
-0.10312950611114502 -0.03247411549091339 0.49087265133857727 0.15248821675777435 1.1013365983963013 4.015058994293213  738339.4312895327
-0.1031007170677185 -0.03212803974747658 0.4910181760787964 0.13914404809474945 1.1125731468200684 3.9743189811706543  738339.4312896644
-0.10418440401554108 -0.02803504280745983 0.49075761437416077 0.10073864459991455 1.1246968507766724 3.955120801925659  738339.4312897696
-0.10420989245176315 -0.027631720528006554 0.4908609390258789 0.07605062425136566 1.1509028673171997 3.903069019317627  738339.4312898577
-0.10425432026386261 -0.02723117545247078 0.49094459414482117 0.008094188757240772 1.1947861909866333 3.8801119327545166  738339.4312899739
-0.10431810468435287 -0.02683267369866371 0.49099844694137573 -0.0244499072432518 1.198835849761963 3.8321354389190674  738339.4312900945
-0.1044018417596817 -0.026435378938913345 0.49102818965911865 -0.09601452201604843 1.1867666244506836 3.7850892543792725  738339.4312902052
-0.10450561344623566 -0.026038412004709244 0.4910379946231842 -0.14978699386119843 1.1472166776657104 3.7371182441711426  738339.4312903263
-0.10462919622659683 -0.025640666484832764 0.49103426933288574 -0.18715502321720123 1.1337248086929321 3.694197177886963  738339.4312904493
-0.10477238148450851 -0.025241302326321602 0.4910266697406769 -0.1870781034231186 1.1913365125656128 3.6480863094329834  738339.4312905555
-0.1049356609582901 -0.024839995428919792 0.49102041125297546 -0.201331228017807 1.2202354669570923 3.6082217693328857  738339.4312906726
-0.10511988401412964 -0.024436648935079575 0.49101996421813965 -0.23657061159610748 1.1870481967926025 3.576587200164795  738339.4312909181
-0.1053251326084137 -0.024030806496739388 0.49103018641471863 -0.2736559808254242 1.1767430305480957 3.519653797149658  738339.4312909405
-0.10596530884504318 -0.019225234165787697 0.4912020266056061 -0.28881797194480896 1.2043917179107666 3.4938275814056396  738339.4312910257
-0.10621396452188492 -0.018737705424427986 0.49122491478919983 -0.29482394456863403 1.2518423795700073 3.45269513130188  738339.4312911475
-0.1064838171005249 -0.01824646256864071 0.4912436902523041 -0.2895223796367645 1.2997775077819824 3.4189302921295166  738339.4312912564
-0.10677599906921387 -0.017751485109329224 0.49127206206321716 -0.3268515467643738 1.2985754013061523 3.3809475898742676  738339.4312913709
-0.1070910170674324 -0.017252476885914803 0.49131450057029724 -0.3534663915634155 1.279922366142273 3.3468854427337646  738339.4312914837
-0.1074635311961174 -0.016698282212018967 0.49136802554130554 -0.34912410378456116 1.2249926328659058 3.3110344409942627  738339.4312915982
-0.10782502591609955 -0.016189459711313248 0.49141567945480347 -0.295236200094223 1.2233095169067383 3.2692487239837646  738339.4312917148
-0.10820778459310532 -0.015676310285925865 0.49146413803100586 -0.22500643134117126 1.198576807975769 3.241511344909668  738339.4312918275
-0.10861166566610336 -0.015159862115979195 0.49152085185050964 -0.18405744433403015 1.079056978225708 3.2021517753601074  738339.43129198
-0.10924296826124191 -0.010408242233097553 0.49187493324279785 -0.23491337895393372 0.9981037974357605 3.1738483905792236  738339.431292065
-0.10970280319452286 -0.009790732525289059 0.49196332693099976 -0.19930297136306763 0.926981508731842 3.148284435272217  738339.43129218
-0.11017940938472748 -0.009170395322144032 0.49205878376960754 -0.16978123784065247 0.8716920614242554 3.1120338439941406  738339.4312922974
-0.11067166179418564 -0.00854772049933672 0.49216121435165405 -0.1469118446111679 0.8281190395355225 3.0917532444000244  738339.4312924128
-0.11117864400148392 -0.00792311504483223 0.4922672212123871 -0.1596621572971344 0.79823237657547 3.0653350353240967  738339.4312925236
-0.11169970780611038 -0.007296624593436718 0.49237582087516785 -0.1662861406803131 0.7580335140228271 3.0383167266845703  738339.4312926397
-0.11223428696393967 -0.006668039597570896 0.4924892783164978 -0.19610649347305298 0.729026198387146 3.0098507404327393  738339.4312927476
-0.1127818301320076 -0.0060370005667209625 0.4926097095012665 -0.22462531924247742 0.6998505592346191 2.98777174949646  738339.4312928766
-0.11334182322025299 -0.0054029845632612705 0.492733895778656 -0.2433222532272339 0.7087815999984741 2.966417074203491  738339.4312929872
-0.11391405761241913 -0.004765591584146023 0.49285751581192017 -0.22114171087741852 0.7437559366226196 2.959531307220459  738339.431293207
-0.11449892073869705 -0.004124867729842663 0.49298152327537537 -0.20281337201595306 0.7759533524513245 2.9495198726654053  738339.4312932538
-0.11423113197088242 0.0010822610929608345 0.4936023950576782 -0.2520116865634918 0.7146493196487427 2.947357177734375  738339.4312933331
-0.11481906473636627 0.0018296546768397093 0.49372848868370056 -0.27020224928855896 0.6918228268623352 2.9523065090179443  738339.431293451
-0.11541929095983505 0.002580903237685561 0.4938574731349945 -0.2500491440296173 0.649639368057251 2.972606658935547  738339.4312935573
-0.11603125929832458 0.0033360151574015617 0.4939904510974884 -0.2239544689655304 0.6311131119728088 2.978549003601074  738339.4312936796
-0.11665429919958115 0.004094584379345179 0.4941156208515167 -0.18247157335281372 0.6166669130325317 3.0108108520507812  738339.4312937965
-0.11728822439908981 0.0048560756258666515 0.4942435622215271 -0.16100715100765228 0.5984346270561218 3.0290544033050537  738339.4312939128
-0.11793284118175507 0.005619981326162815 0.49438565969467163 -0.13438765704631805 0.5500532388687134 3.0448243618011475  738339.4312940253
-0.1185874417424202 0.006385892629623413 0.49453142285346985 -0.12463904917240143 0.5213340520858765 3.072108030319214  738339.431294148
-0.11925134062767029 0.007153529208153486 0.4946795105934143 -0.06243055313825607 0.5325446724891663 3.09196138381958  738339.4312942964
-0.11890847980976105 0.011330509558320045 0.49526920914649963 -0.0494508296251297 0.5599268674850464 3.0887398719787598  738339.4312943774
-0.11957666277885437 0.012174596078693867 0.4954754412174225 0.008490313775837421 0.5619283318519592 3.1123440265655518  738339.4312944941
-0.12025465071201324 0.013018484227359295 0.49570146203041077 0.05437825620174408 0.6041176319122314 3.139500141143799  738339.431294605
-0.12094270437955856 0.013861261308193207 0.4959389865398407 0.08386266231536865 0.6331024765968323 3.1640846729278564  738339.4312947205
-0.12164141982793808 0.014702239073812962 0.49619060754776 0.0933835580945015 0.6059242486953735 3.1867146492004395  738339.4312948373
-0.12235070765018463 0.015541093423962593 0.49644896388053894 0.08283229172229767 0.6007789373397827 3.219405174255371  738339.431294952
-0.12307007610797882 0.0163778867572546 0.49669304490089417 0.1170707568526268 0.594325065612793 3.238832950592041  738339.4312950675
-0.1237993910908699 0.01721244305372238 0.4969199597835541 0.11467254906892776 0.6531859040260315 3.256319046020508  738339.431295184
-0.1245390847325325 0.018044449388980865 0.4971323013305664 0.11691895872354507 0.689536988735199 3.284047842025757  738339.4312953032
-0.1252899169921875 0.01887386664748192 0.4973262846469879 0.0888565331697464 0.6940620541572571 3.3057644367218018  738339.4312954196
-0.1260523796081543 0.019700851291418076 0.4975125193595886 0.10627355426549911 0.7092824578285217 3.3219778537750244  738339.4312955722
-0.12531130015850067 0.02361847274005413 0.49808835983276367 0.13736432790756226 0.6747348308563232 3.3301708698272705  738339.4312956532
-0.12605880200862885 0.02448531799018383 0.4982994496822357 0.1653686761856079 0.7010297775268555 3.353090286254883  738339.4312957622
-0.12681794166564941 0.025348875671625137 0.498512327671051 0.19960017502307892 0.7462919354438782 3.362515449523926  738339.431295894
-0.12758924067020416 0.02620859630405903 0.49872317910194397 0.2062443345785141 0.715627133846283 3.380892753601074  738339.431295995
-0.12837278842926025 0.027064122259616852 0.49893078207969666 0.208820179104805 0.6606400609016418 3.389415979385376  738339.4312961217
-0.12916786968708038 0.027915408834815025 0.49913686513900757 0.2190375179052353 0.6412644982337952 3.4056520462036133  738339.4312962372
-0.12997382879257202 0.028762387111783028 0.4993402361869812 0.25794070959091187 0.6397961378097534 3.4174273014068604  738339.4312963767
-0.13079039752483368 0.029604682698845863 0.49953481554985046 0.2871697247028351 0.6669822931289673 3.4223780632019043  738339.4312966084
-0.13161775469779968 0.030441703274846077 0.4997209310531616 0.32032129168510437 0.6752732396125793 3.436291456222534  738339.4312966957
-0.1324562281370163 0.03127286583185196 0.49990344047546387 0.3229728639125824 0.6168529391288757 3.4405856132507324  738339.4312967308
-0.13181789219379425 0.034820377826690674 0.5004288554191589 0.3218884766101837 0.5611120462417603 3.4407715797424316  738339.4312968111
-0.13272354006767273 0.03576963022351265 0.5006301403045654 0.31970199942588806 0.49678322672843933 3.44781231880188  738339.4312969138
-0.13355599343776703 0.03662627562880516 0.500809371471405 0.31740865111351013 0.49965494871139526 3.4573841094970703  738339.4312970446
-0.13439658284187317 0.03747699782252312 0.5009828805923462 0.35136768221855164 0.5057953000068665 3.462380886077881  738339.4312971609
-0.13524535298347473 0.038321539759635925 0.5011484026908875 0.3542960584163666 0.5249161124229431 3.462005138397217  738339.4312972659
-0.13610249757766724 0.03915956988930702 0.5013062953948975 0.35058122873306274 0.5159403681755066 3.4562182426452637  738339.431297383
-0.13696815073490143 0.03999106213450432 0.5014609098434448 0.33936944603919983 0.4957526624202728 3.4522221088409424  738339.4312974985
-0.1378420740365982 0.04081615060567856 0.5016130208969116 0.33505937457084656 0.4999164044857025 3.4333338737487793  738339.4312976133
-0.13872411847114563 0.04163499176502228 0.5017611384391785 0.3463309407234192 0.47076308727264404 3.4240336418151855  738339.4312977308
-0.13961413502693176 0.042447496205568314 0.5019123554229736 0.34644392132759094 0.46989357471466064 3.40519380569458  738339.4312978784
-0.13876792788505554 0.045086026191711426 0.5020576119422913 0.4422159492969513 0.4778931438922882 3.402148485183716  738339.4312979615
-0.13963890075683594 0.04590121656656265 0.5022152066230774 0.4824361801147461 0.5024850964546204 3.3829987049102783  738339.4312980801
-0.1405177265405655 0.04670806974172592 0.5023666620254517 0.49733999371528625 0.533612847328186 3.360137939453125  738339.4312981892
-0.14140480756759644 0.04750613868236542 0.5025063157081604 0.5114232301712036 0.5484790205955505 3.35817813873291  738339.4312983055
-0.14230045676231384 0.04829523339867592 0.5026264786720276 0.5090571045875549 0.5888454914093018 3.3373630046844482  738339.4312984247
-0.1432051658630371 0.049075186252593994 0.5027312636375427 0.5426561236381531 0.6420395970344543 3.325984239578247  738339.4312985416
-0.1441197246313095 0.049845680594444275 0.5028222799301147 0.5518705248832703 0.6732643246650696 3.3031961917877197  738339.4312986541
-0.14504478871822357 0.050606343895196915 0.5028968453407288 0.5516584515571594 0.681743860244751 3.2928831577301025  738339.4312987718
-0.1459808051586151 0.05135699361562729 0.5029630661010742 0.5714157819747925 0.6732654571533203 3.2883012294769287  738339.4312989253
-0.14537476003170013 0.05361504480242729 0.5028278827667236 0.6745246052742004 0.6645869612693787 3.2590150833129883  738339.4312989962
-0.14629298448562622 0.05434400215744972 0.5028634071350098 0.7204037308692932 0.7228986620903015 3.2823243141174316  738339.4312991115
-0.1472223848104477 0.05506034567952156 0.5028995871543884 0.745853066444397 0.7590628862380981 3.2501962184906006  738339.4312992204
-0.14816389977931976 0.05576327070593834 0.5029479265213013 0.7417614459991455 0.8053910732269287 3.2560007572174072  738339.4312993468
-0.14911815524101257 0.056452639400959015 0.5030019879341125 0.7513022422790527 0.881772518157959 3.247903347015381  738339.431299453
-0.15008613467216492 0.05712839961051941 0.5030580163002014 0.7381911277770996 0.9426899552345276 3.229045867919922  738339.4312995815
-0.1510690599679947 0.05779048800468445 0.5031183958053589 0.6927255988121033 0.9825604557991028 3.2252204418182373  738339.4312996942
-0.15206772089004517 0.05843944475054741 0.5031769275665283 0.6383322477340698 1.0415914058685303 3.20686936378479  738339.431299811
-0.15308299660682678 0.05907609313726425 0.5032322406768799 0.6006737351417542 1.116206169128418 3.2022488117218018  738339.4312999188
-0.15411612391471863 0.05970112234354019 0.5032868981361389 0.54494708776474 1.159680724143982 3.1723039150238037  738339.4313000456
-0.15516790747642517 0.06031542271375656 0.5033287405967712 0.5086987614631653 1.1921008825302124 3.1771814823150635  738339.4313002095
-0.1542680710554123 0.0627129003405571 0.5030293464660645 0.4949404001235962 1.1996265649795532 3.170788526535034  738339.4313002789
-0.15530772507190704 0.06334129720926285 0.5030650496482849 0.5124877691268921 1.2601550817489624 3.1592507362365723  738339.4313003818
-0.1563679426908493 0.06395991891622543 0.5031003952026367 0.5293182134628296 1.2760173082351685 3.170114755630493  738339.4313005087
-0.1574491262435913 0.06456854194402695 0.5031257271766663 0.5652177333831787 1.3158081769943237 3.156712055206299  738339.4313006123
-0.15855184197425842 0.06516663730144501 0.5031464099884033 0.6063271164894104 1.3430742025375366 3.160297393798828  738339.4313007289
-0.15967659652233124 0.06575353443622589 0.5031607151031494 0.6272156238555908 1.327641487121582 3.1621389389038086  738339.4313008455
-0.16082356870174408 0.06632864475250244 0.5031737089157104 0.6405683755874634 1.3107661008834839 3.149204969406128  738339.4313009725
-0.16199253499507904 0.06689165532588959 0.5031879544258118 0.6353486180305481 1.3009470701217651 3.1543679237365723  738339.4313010878
-0.16318334639072418 0.06744246184825897 0.5032076835632324 0.632843017578125 1.260050654411316 3.1340365409851074  738339.4313012323
-0.16339051723480225 0.06955450028181076 0.5028203725814819 0.6069315671920776 1.2159671783447266 3.1399896144866943  738339.4313012994
-0.1646038144826889 0.07011327147483826 0.5028567314147949 0.6001198291778564 1.2315208911895752 3.1269824504852295  738339.4313014256
-0.16583755612373352 0.0706605315208435 0.5028972625732422 0.6300886869430542 1.2141387462615967 3.1365602016448975  738339.4313015402
-0.1670914590358734 0.07119622826576233 0.5029294490814209 0.5972577333450317 1.1894497871398926 3.1296274662017822  738339.4313016555
-0.16836519539356232 0.07172038406133652 0.5029544830322266 0.6141393780708313 1.1343244314193726 3.14201283454895  738339.4313017708
-0.16965818405151367 0.07223311811685562 0.5029768943786621 0.6067814826965332 1.1333688497543335 3.147946834564209  738339.4313018863
-0.1709698736667633 0.07273441553115845 0.5029933452606201 0.6292129755020142 1.150202751159668 3.1425724029541016  738339.4313020133
-0.17230048775672913 0.07322408258914948 0.5030093789100647 0.647320032119751 1.1549216508865356 3.1640758514404297  738339.4313021287
-0.17365029454231262 0.07370168715715408 0.5030295848846436 0.6530717611312866 1.1700317859649658 3.1426029205322266  738339.4313022442
-0.17515723407268524 0.07421301305294037 0.5030466914176941 0.6598970293998718 1.1663475036621094 3.1635305881500244  738339.431302348
-0.17654719948768616 0.07466510683298111 0.5030466914176941 0.6653474569320679 1.170314073562622 3.156050205230713  738339.4313024984
-0.1768718659877777 0.07648121565580368 0.5023616552352905 0.6169518232345581 1.0769708156585693 3.1561501026153564  738339.4313025797
-0.1782744824886322 0.07694540172815323 0.502322256565094 0.6288242936134338 1.0494962930679321 3.159902811050415  738339.4313026987
-0.17969448864459991 0.07739807665348053 0.5022714138031006 0.6051057577133179 1.025330901145935 3.167910099029541  738339.431302812
-0.18113160133361816 0.07783924788236618 0.5022175312042236 0.6322529911994934 0.951440691947937 3.1769182682037354  738339.4313029296
-0.18258526921272278 0.07826871424913406 0.5021794438362122 0.6234135627746582 0.8847111463546753 3.17409086227417  738339.4313030463
-0.18405430018901825 0.07868636399507523 0.5021593570709229 0.6354214549064636 0.7821181416511536 3.2006428241729736  738339.4313031577
-0.18553711473941803 0.07909231632947922 0.5021508932113647 0.678605854511261 0.6628676056861877 3.2059364318847656  738339.4313032716
-0.18703170120716095 0.07948627322912216 0.502147912979126 0.7079018950462341 0.5717649459838867 3.204813241958618  738339.4313033826
-0.1885361671447754 0.07986780256032944 0.5021436810493469 0.7738807201385498 0.5053496360778809 3.2429354190826416  738339.4313035294
-0.1893700510263443 0.08089251071214676 0.501427173614502 0.7743018269538879 0.4696372151374817 3.2161169052124023  738339.4313036252
-0.19090358912944794 0.08126626163721085 0.5013797283172607 0.800536036491394 0.40456894040107727 3.2559962272644043  738339.4313037373
-0.19244375824928284 0.08162632584571838 0.501318097114563 0.8211634755134583 0.36700600385665894 3.2506160736083984  738339.4313038556
-0.19398967921733856 0.08197228610515594 0.5012478232383728 0.8363736271858215 0.3536873757839203 3.251666307449341  738339.4313039705
-0.19554094970226288 0.0823037400841713 0.5011765360832214 0.8340343832969666 0.3372500538825989 3.2771599292755127  738339.431304095
-0.19709737598896027 0.08262036740779877 0.5011197924613953 0.8404961228370667 0.32305681705474854 3.2650952339172363  738339.4313041989
-0.19865873456001282 0.08292202651500702 0.5010849833488464 0.824421226978302 0.324744313955307 3.2780168056488037  738339.431304326
-0.20022492110729218 0.08320882171392441 0.5010716319084167 0.8090469241142273 0.28970426321029663 3.2702343463897705  738339.4313044643
-0.20179562270641327 0.08348113298416138 0.5010742545127869 0.7932954430580139 0.27786457538604736 3.280029535293579  738339.43130466
-0.20337042212486267 0.08373938500881195 0.501082718372345 0.749860942363739 0.24701978266239166 3.2728452682495117  738339.4313047663
-0.20389291644096375 0.08389829844236374 0.5003281235694885 0.7331278324127197 0.18767410516738892 3.284821033477783  738339.4313048393
-0.20546236634254456 0.08411867171525955 0.500318706035614 0.7117441892623901 0.15953482687473297 3.277087926864624  738339.4313049202
-0.20703411102294922 0.08432634174823761 0.5003240704536438 0.6711209416389465 0.08763875812292099 3.2688817977905273  738339.4313050477
-0.20860730111598969 0.08452192693948746 0.500342071056366 0.6085042357444763 -0.03915967792272568 3.2776894569396973  738339.4313051401
-0.21018025279045105 0.08470641821622849 0.5003730058670044 0.5643130540847778 -0.13710448145866394 3.2418718338012695  738339.4313052711
-0.2117510885000229 0.08488088101148605 0.5004137754440308 0.5184821486473083 -0.2007128894329071 3.2463037967681885  738339.4313053729
-0.21331848204135895 0.0850462093949318 0.5004595518112183 0.45388129353523254 -0.29470598697662354 3.2147905826568604  738339.4313055002
-0.21488115191459656 0.08520343154668808 0.5005099177360535 0.3842390477657318 -0.4345846176147461 3.2098093032836914  738339.4313056238
-0.21643710136413574 0.0853537768125534 0.5005707144737244 0.31700336933135986 -0.5017048120498657 3.1820056438446045  738339.4313057157
-0.2179846167564392 0.08549852669239044 0.5006417632102966 0.278054416179657 -0.5131763219833374 3.170875310897827  738339.4313058371
-0.2195231169462204 0.08563864231109619 0.5007192492485046 0.21997755765914917 -0.5628991723060608 3.136723756790161  738339.4313059959
-0.22016696631908417 0.08547666668891907 0.49986758828163147 0.17279861867427826 -0.5896401405334473 3.147392511367798  738339.4313060499
-0.22168172895908356 0.08559668064117432 0.49994197487831116 0.15408805012702942 -0.6349526643753052 3.1191585063934326  738339.4313061859
-0.22318585216999054 0.08571446686983109 0.5000177621841431 0.14378395676612854 -0.6316463351249695 3.1073174476623535  738339.4313062794
-0.22467908263206482 0.08583030849695206 0.5000869035720825 0.12232082337141037 -0.6501042246818542 3.0915770530700684  738339.4313064321
-0.226161390542984 0.08594448119401932 0.5001424551010132 0.08751436322927475 -0.6538447141647339 3.068081855773926  738339.431306579
-0.2276325225830078 0.08605745434761047 0.5001929998397827 0.09158893674612045 -0.6409277319908142 3.065340042114258  738339.4313066516
-0.22909235954284668 0.08616948127746582 0.5002557039260864 0.09366357326507568 -0.6135009527206421 3.047818899154663  738339.4313067669
-0.23054122924804688 0.0862804725766182 0.5003334879875183 0.07197336852550507 -0.5999494194984436 3.029834032058716  738339.4313068934
-0.23197948932647705 0.08639058470726013 0.5004276037216187 0.062300700694322586 -0.6055471897125244 3.0314502716064453  738339.4313070615
-0.2323666661977768 0.08621957153081894 0.49966537952423096 0.03628658503293991 -0.594224750995636 3.010850429534912  738339.4313071078
-0.2337634265422821 0.0863284021615982 0.4997608959674835 0.004783601965755224 -0.5572859644889832 3.017030954360962  738339.4313072218
-0.23515035212039948 0.0864374041557312 0.49985453486442566 -0.0057975780218839645 -0.537437379360199 2.9930431842803955  738339.4313073364
-0.23652788996696472 0.0865468978881836 0.4999507963657379 -0.028778603300452232 -0.5088942050933838 2.97563099861145  738339.4313074432
-0.2378964126110077 0.08665716648101807 0.5000565052032471 -0.07954010367393494 -0.4641377329826355 2.9704577922821045  738339.4313075552
-0.2393922507762909 0.08678005635738373 0.5001749396324158 -0.11991961300373077 -0.4238683581352234 2.957366943359375  738339.4313076732
-0.24074424803256989 0.08689393848180771 0.5002753138542175 -0.18502376973628998 -0.3626117706298828 2.952725648880005  738339.4313077906
-0.24208968877792358 0.08701074868440628 0.5003692507743835 -0.23510728776454926 -0.3229180574417114 2.9484050273895264  738339.4313079059
-0.24342946708202362 0.08713144063949585 0.5004607439041138 -0.2880009114742279 -0.26361939311027527 2.9529898166656494  738339.43130801
-0.24476444721221924 0.08725688606500626 0.5005562901496887 -0.345177561044693 -0.22924205660820007 2.948247194290161  738339.4313081345
-0.2460954487323761 0.0873880460858345 0.5006647706031799 -0.3865136206150055 -0.2194853574037552 2.9537580013275146  738339.4313082864
-0.24693599343299866 0.08657275885343552 0.4998116195201874 -0.42972955107688904 -0.1760169118642807 2.939829111099243  738339.4313083667
-0.24825161695480347 0.08669714629650116 0.4999084770679474 -0.46239951252937317 -0.16738976538181305 2.9575133323669434  738339.4313084926
-0.24956466257572174 0.08682941645383835 0.5000178813934326 -0.5031230449676514 -0.15633554756641388 2.9484434127807617  738339.4313085971
-0.250875324010849 0.08697021007537842 0.5001404285430908 -0.5177083015441895 -0.10888219624757767 2.971672534942627  738339.4313087024
-0.2521841824054718 0.08711986988782883 0.5002653002738953 -0.5402149558067322 -0.10248402506113052 2.982163190841675  738339.4313088293
-0.25349169969558716 0.08727870136499405 0.5003930330276489 -0.6032685041427612 -0.09752359986305237 2.992884874343872  738339.4313089448
-0.254798024892807 0.08744744956493378 0.5005251169204712 -0.6434059739112854 -0.08819296956062317 3.0121524333953857  738339.4313090602
-0.2561033070087433 0.08762707561254501 0.5006697773933411 -0.6984657645225525 -0.03727056458592415 3.0316336154937744  738339.4313091642
-0.25740814208984375 0.08781851828098297 0.5008369088172913 -0.731437087059021 0.00200340012088418 3.0612716674804688  738339.431309327
-0.2577661871910095 0.08720588684082031 0.5001296997070312 -0.7910535335540771 0.009978101588785648 3.0680527687072754  738339.4313094063
-0.2590479254722595 0.08741994202136993 0.5002858638763428 -0.8361128568649292 0.057285428047180176 3.0994701385498047  738339.4313095234
-0.2603309750556946 0.08764774352312088 0.500433087348938 -0.8366461992263794 0.10169189423322678 3.1341657638549805  738339.4313096364
-0.26161617040634155 0.08788978308439255 0.5005812048912048 -0.8645632863044739 0.12197432667016983 3.172013521194458  738339.431309751
-0.2629040777683258 0.08814625442028046 0.5007293224334717 -0.8561627268791199 0.15772680938243866 3.2049882411956787  738339.4313098687
-0.26419520378112793 0.08841723203659058 0.5008726119995117 -0.8580978512763977 0.16767890751361847 3.2477657794952393  738339.431309984
-0.26548993587493896 0.08870266377925873 0.5010133385658264 -0.8565306663513184 0.15723611414432526 3.282860279083252  738339.431310111
-0.2667882740497589 0.08900260180234909 0.5011544823646545 -0.8264569640159607 0.12039586156606674 3.3226635456085205  738339.4313102263
-0.26808983087539673 0.08931679278612137 0.5012961626052856 -0.8145199418067932 0.08299092948436737 3.3519537448883057  738339.4313103418
-0.2693939507007599 0.08964479714632034 0.501430332660675 -0.7749379277229309 0.004315496888011694 3.3909294605255127  738339.4313104457
-0.2706996202468872 0.08998627215623856 0.501559317111969 -0.7516206502914429 -0.030824946239590645 3.4062342643737793  738339.4313106069
-0.2721356749534607 0.08890107274055481 0.5006619691848755 -0.7319265007972717 -0.03199169412255287 3.4290897846221924  738339.4313106785
-0.273456871509552 0.0892503559589386 0.5007896423339844 -0.7226211428642273 -0.09072257578372955 3.460423707962036  738339.4313107998
-0.27477774024009705 0.08961217105388641 0.5009207725524902 -0.7238242626190186 -0.16474469006061554 3.4854722023010254  738339.4313109155
-0.27609720826148987 0.08998648077249527 0.501051664352417 -0.7210309505462646 -0.20053188502788544 3.535554885864258  738339.431311021
-0.2774142920970917 0.09037340432405472 0.5011886358261108 -0.6771856546401978 -0.17991462349891663 3.5573201179504395  738339.4313111457
-0.2787288725376129 0.09077242016792297 0.5013210773468018 -0.654123842716217 -0.18050415813922882 3.598158836364746  738339.4313112621
-0.2800411581993103 0.09118282049894333 0.501436710357666 -0.6435580253601074 -0.19171883165836334 3.62927508354187  738339.4313113767
-0.2813510000705719 0.0916043296456337 0.5015363693237305 -0.6214460134506226 -0.16728991270065308 3.6619505882263184  738339.4313114776
-0.28265848755836487 0.09203669428825378 0.5016221404075623 -0.5984832048416138 -0.1288079470396042 3.679255247116089  738339.4313115977
-0.2835046350955963 0.09084541350603104 0.5007268190383911 -0.6026791334152222 -0.1225358173251152 3.7145490646362305  738339.4313117233
-0.2848019003868103 0.09128069877624512 0.5007770657539368 -0.5833796858787537 -0.12507110834121704 3.7309577465057373  738339.4313118357
-0.2860977053642273 0.09172629565000534 0.5008317828178406 -0.5682483911514282 -0.09244822710752487 3.759915590286255  738339.4313119614
-0.2873923182487488 0.09218184649944305 0.5008857846260071 -0.5695775151252747 -0.09071070700883865 3.7737233638763428  738339.4313120587
-0.28868600726127625 0.09264717251062393 0.5009352564811707 -0.5590280294418335 -0.0861399695277214 3.7915399074554443  738339.4313121784
-0.28997883200645447 0.09312225878238678 0.5009862184524536 -0.5579264760017395 -0.06838033348321915 3.808917999267578  738339.431312302
-0.2912709712982178 0.09360702335834503 0.5010420680046082 -0.5482585430145264 -0.07901982218027115 3.8086097240448  738339.4313124147
-0.29256248474121094 0.09410126507282257 0.5010920763015747 -0.5136573314666748 -0.08233588933944702 3.8156657218933105  738339.4313125301
-0.293853223323822 0.09460454434156418 0.5011278986930847 -0.46800729632377625 -0.14329196512699127 3.816488742828369  738339.4313126435
-0.29514262080192566 0.09511623531579971 0.5011513829231262 -0.406907856464386 -0.22186075150966644 3.807706117630005  738339.431312814
-0.2968883812427521 0.09353157877922058 0.5003397464752197 -0.35953834652900696 -0.267069548368454 3.8150575160980225  738339.4313128756
-0.29832035303115845 0.0940733402967453 0.5003236532211304 -0.2501909136772156 -0.35743212699890137 3.8175277709960938  738339.431312985
-0.2996169328689575 0.09457177668809891 0.5003154873847961 -0.1691550612449646 -0.4383821487426758 3.8034255504608154  738339.431313112
-0.30090686678886414 0.09507427364587784 0.5003180503845215 -0.09729437530040741 -0.5615313053131104 3.786937952041626  738339.4313132239
-0.30218836665153503 0.0955796167254448 0.5003229975700378 -0.00585149135440588 -0.6397524476051331 3.7780275344848633  738339.4313133319
-0.30345961451530457 0.0960865244269371 0.5003326535224915 0.08453337848186493 -0.7171691060066223 3.756884813308716  738339.431313454
-0.3047190010547638 0.09659349918365479 0.5003607869148254 0.1724352240562439 -0.8373803496360779 3.7489399909973145  738339.4313135775
-0.30596455931663513 0.09709908068180084 0.5004132390022278 0.21304984390735626 -0.9197836518287659 3.724764823913574  738339.4313136821
-0.3071947395801544 0.09760231524705887 0.5004743933677673 0.23538191616535187 -0.9995388984680176 3.7053873538970947  738339.4313138032
-0.30840831995010376 0.09810278564691544 0.5005336999893188 0.2662009298801422 -1.080465316772461 3.6895830631256104  738339.4313139182
-0.30960389971733093 0.0986001193523407 0.5005912184715271 0.2757119834423065 -1.1491755247116089 3.6628220081329346  738339.431314087
-0.31119197607040405 0.09632876515388489 0.4997960329055786 0.3126504123210907 -1.1706962585449219 3.684422492980957  738339.4313141447
-0.31236550211906433 0.09676552563905716 0.4998043179512024 0.3312843441963196 -1.2494124174118042 3.665062665939331  738339.4313142593
-0.3135184943675995 0.09719820320606232 0.4997907280921936 0.3347432613372803 -1.3539012670516968 3.6436262130737305  738339.4313143827
-0.31464919447898865 0.09762665629386902 0.4997643530368805 0.35518255829811096 -1.4458504915237427 3.6317684650421143  738339.4313144871
-0.31575554609298706 0.09805072098970413 0.4997403919696808 0.38980141282081604 -1.5225512981414795 3.612138509750366  738339.4313146103
-0.3168359398841858 0.09846997261047363 0.4997234344482422 0.4119788408279419 -1.6153767108917236 3.5998945236206055  738339.4313147238
-0.3178888261318207 0.09888400882482529 0.49971532821655273 0.40926969051361084 -1.7082785367965698 3.591392755508423  738339.4313148408
-0.31891241669654846 0.09929273277521133 0.49972161650657654 0.4068792164325714 -1.8010597229003906 3.575840473175049  738339.4313149559
-0.31990525126457214 0.09969629347324371 0.499737948179245 0.3736850619316101 -1.860353946685791 3.565310001373291  738339.4313151132
-0.32093310356140137 0.09761862456798553 0.4990825951099396 0.32807543873786926 -1.8841453790664673 3.5703678131103516  738339.4313151828
-0.32186952233314514 0.09797132015228271 0.4990907907485962 0.2792370617389679 -1.9480938911437988 3.566106081008911  738339.4313152983
-0.3227730095386505 0.09832087904214859 0.4990948438644409 0.1986667513847351 -2.0191128253936768 3.5557503700256348  738339.4313154133
-0.323642760515213 0.09866846352815628 0.49908649921417236 0.13464665412902832 -2.0855698585510254 3.549689769744873  738339.4313155307
-0.3244777023792267 0.09901537001132965 0.4990658164024353 0.06573089212179184 -2.1301403045654297 3.5350334644317627  738339.4313156472
-0.3252769708633423 0.09936276078224182 0.4990328848361969 -0.010366776026785374 -2.1494128704071045 3.520352363586426  738339.4313157744
-0.3260399401187897 0.09971190243959427 0.4989916980266571 -0.0918247401714325 -2.1956160068511963 3.507828950881958  738339.4313158783
-0.3267659544944763 0.10006417334079742 0.4989472031593323 -0.16789460182189941 -2.2114808559417725 3.4737086296081543  738339.4313159938
-0.32745468616485596 0.10042090713977814 0.4988957941532135 -0.22507710754871368 -2.1636431217193604 3.4647109508514404  738339.4313161091
-0.32810673117637634 0.10078316926956177 0.49883002042770386 -0.270935595035553 -2.1195077896118164 3.4512686729431152  738339.4313162246
-0.3287229537963867 0.10115177184343338 0.4987495243549347 -0.3184584081172943 -2.068793773651123 3.4321107864379883  738339.4313163878
-0.3295822739601135 0.09937833994626999 0.4979510009288788 -0.3787097632884979 -2.0346155166625977 3.4294052124023438  738339.4313164558
-0.330120712518692 0.09973381459712982 0.4978448450565338 -0.3878174424171448 -1.9764714241027832 3.423093557357788  738339.431316578
-0.3306257724761963 0.10009776055812836 0.4977233111858368 -0.3819783329963684 -1.911526083946228 3.402048110961914  738339.4313166927
-0.33109840750694275 0.10047014057636261 0.49758854508399963 -0.3618350923061371 -1.8707005977630615 3.3992068767547607  738339.4313168105
-0.33153921365737915 0.10085076838731766 0.49744975566864014 -0.33165431022644043 -1.8358228206634521 3.3778014183044434  738339.4313169267
-0.3319489657878876 0.10123912990093231 0.497302770614624 -0.2856086790561676 -1.790825605392456 3.363417863845825  738339.4313170377
-0.33232831954956055 0.10163452476263046 0.49714574217796326 -0.2286178171634674 -1.741241216659546 3.347748279571533  738339.431317153
-0.332677960395813 0.10203603655099869 0.49698129296302795 -0.20010651648044586 -1.7101624011993408 3.3127334117889404  738339.4313172685
-0.33299827575683594 0.1024429202079773 0.49681779742240906 -0.1868826299905777 -1.6789509057998657 3.302292823791504  738339.4313175082
-0.33328962326049805 0.10285481065511703 0.4966605603694916 -0.15778423845767975 -1.6013739109039307 3.2639570236206055  738339.4313175551
-0.3336142301559448 0.1011442244052887 0.49640440940856934 -0.20480485260486603 -1.615721583366394 3.255843162536621  738339.4313176135
-0.3338318169116974 0.10154465585947037 0.49623870849609375 -0.22838003933429718 -1.6010534763336182 3.213932514190674  738339.4313177298
-0.3340218961238861 0.10195036977529526 0.4960812032222748 -0.25742635130882263 -1.5569522380828857 3.1701807975769043  738339.4313178463
-0.3341846168041229 0.10236185789108276 0.49594563245773315 -0.2667042315006256 -1.4596418142318726 3.131220817565918  738339.4313179514
-0.33432111144065857 0.10277939587831497 0.495837539434433 -0.24694576859474182 -1.3637393712997437 3.093043804168701  738339.4313180784
-0.33443304896354675 0.10320277512073517 0.49575796723365784 -0.2531275749206543 -1.2494648694992065 3.0362906455993652  738339.4313181973
