% x y z r p yw  738318.7134667841
-0.10275085270404816 0.3634229004383087 0.797978937625885 0.08459349721670151 0.20671118795871735 -0.12265476584434509  738318.7136664672
-0.10410663485527039 0.364501953125 0.7976356744766235 0.12911760807037354 0.23983410000801086 -0.1428089439868927  738318.7136665022
-0.10546626150608063 0.36557915806770325 0.7972930669784546 0.16507761180400848 0.30378374457359314 -0.16475491225719452  738318.7136667443
-0.1067546010017395 0.3661946654319763 0.7969407439231873 0.19195948541164398 0.3413468599319458 -0.18516571819782257  738318.7136669059
-0.1075696125626564 0.36336010694503784 0.7989374399185181 0.17196574807167053 0.39380979537963867 -0.24545113742351532  738318.7136669523
-0.10890877991914749 0.36421290040016174 0.7987364530563354 0.23840214312076569 0.4252508282661438 -0.27733561396598816  738318.7136673905
-0.11156729608774185 0.3661869168281555 0.7983185052871704 0.2887492775917053 0.4447087049484253 -0.3379969298839569  738318.7136674942
-0.11231721192598343 0.3666674792766571 0.7984469532966614 0.3168281316757202 0.45699310302734375 -0.3634488582611084  738318.7136676674
-0.11356615275144577 0.3676738440990448 0.7982352375984192 0.3146238923072815 0.4059162735939026 -0.3943987488746643  738318.7136677481
-0.11504682898521423 0.36863622069358826 0.798031747341156 0.3026229739189148 0.3523558974266052 -0.4383477568626404  738318.7136678636
-0.11641190946102142 0.36959633231163025 0.7978413701057434 0.2542543411254883 0.2909393012523651 -0.4655705988407135  738318.7136679098
-0.11776567995548248 0.37054023146629333 0.7981534600257874 0.17795568704605103 0.2790875732898712 -0.4879536032676697  738318.7136680252
-0.11926735192537308 0.3710000514984131 0.7979655265808105 0.1242106482386589 0.2784442603588104 -0.5111843943595886  738318.7136681637
-0.12022721022367477 0.3657276928424835 0.7982982397079468 0.21638208627700806 0.32653775811195374 -0.5141566395759583  738318.713668441
-0.12418685108423233 0.36766940355300903 0.7961779236793518 0.09596842527389526 0.29174181818962097 -0.5663344860076904  738318.7136686487
-0.12683579325675964 0.36902713775634766 0.7955571413040161 -0.014371748082339764 0.2500301003456116 -0.594257652759552  738318.7136687299
-0.12838560342788696 0.36985138058662415 0.7952090501785278 -0.06509599089622498 0.2032289206981659 -0.6120754480361938  738318.7136687757
-0.12970764935016632 0.3707340657711029 0.7913937568664551 -0.1495162695646286 0.1910697966814041 -0.6215854287147522  738318.71366888
-0.13114894926548004 0.37151849269866943 0.7908545136451721 -0.22677117586135864 0.16761286556720734 -0.6314972043037415  738318.7136691335
-0.1325659453868866 0.3722795248031616 0.7903291583061218 -0.3176599442958832 0.14255161583423615 -0.63872891664505  738318.7136693182
-0.13328808546066284 0.3671877980232239 0.790642499923706 -0.33141109347343445 0.17093397676944733 -0.6363346576690674  738318.7136693643
-0.1362444907426834 0.3685021698474884 0.7931575775146484 -0.48499277234077454 0.19754883646965027 -0.6458491086959839  738318.7136695029
-0.13768889009952545 0.36914199590682983 0.7928925156593323 -0.5310512781143188 0.19086916744709015 -0.6534604430198669  738318.7136696303
-0.1391972303390503 0.36980950832366943 0.7926591038703918 -0.5590966939926147 0.18688726425170898 -0.6587985754013062  738318.7136698377
-0.14064855873584747 0.3704775869846344 0.7924254536628723 -0.6022098064422607 0.2348881959915161 -0.6552234292030334  738318.71366993
-0.14210794866085052 0.3711588382720947 0.7935628890991211 -0.5969808101654053 0.2143646776676178 -0.6574530601501465  738318.7136700688
-0.14362028241157532 0.3717041015625 0.7934358716011047 -0.5993682146072388 0.2067335993051529 -0.6596258282661438  738318.7136703224
-0.14508460462093353 0.3723982572555542 0.7933229207992554 -0.5917582511901855 0.2176150679588318 -0.6550245881080627  738318.7136705072
-0.14590273797512054 0.36820095777511597 0.7939691543579102 -0.4783158302307129 0.26906952261924744 -0.635734498500824  738318.7136706806
-0.1473546177148819 0.36902937293052673 0.7924082279205322 -0.44276344776153564 0.27897801995277405 -0.6233580112457275  738318.7136707496
-0.14878006279468536 0.3693965673446655 0.7922860383987427 -0.4115108251571655 0.29747453331947327 -0.6150293946266174  738318.7136707639
-0.15179656445980072 0.3708197772502899 0.7920220494270325 -0.389392226934433 0.25260618329048157 -0.5930199027061462  738318.7136709924
-0.15471024811267853 0.3718828558921814 0.7913252115249634 -0.4248877465724945 0.23603038489818573 -0.5727363228797913  738318.7136712002
-0.15576738119125366 0.3719296157360077 0.7911431789398193 -0.47860509157180786 0.3179997205734253 -0.5495302081108093  738318.7136712468
-0.15726231038570404 0.37256306409835815 0.7909560799598694 -0.5582438111305237 0.29427653551101685 -0.5371019244194031  738318.7136714892
-0.15643081068992615 0.36859747767448425 0.7916210293769836 -0.5202797651290894 0.18659143149852753 -0.5153318047523499  738318.7136717314
-0.15795545279979706 0.3692251145839691 0.7912794351577759 -0.6427603960037231 0.19963984191417694 -0.507011890411377  738318.7136720226
-0.15940053761005402 0.36977139115333557 0.7911437749862671 -0.7245370745658875 0.1908228099346161 -0.4905100166797638  738318.7136720571
-0.16084879636764526 0.3703291714191437 0.7909893989562988 -0.7755323648452759 0.2107052057981491 -0.4942071735858917  738318.7136722532
-0.16331081092357635 0.3710709810256958 0.789973795413971 -0.8694713711738586 0.20680469274520874 -0.485355406999588  738318.7136723108
-0.16467523574829102 0.37156692147254944 0.7897440791130066 -0.9258674383163452 0.20697015523910522 -0.48286911845207214  738318.7136726571
-0.16611836850643158 0.3721632957458496 0.7895112633705139 -0.9546404480934143 0.19095200300216675 -0.4781261384487152  738318.7136728303
-0.1674896627664566 0.37249112129211426 0.789281964302063 -0.9698512554168701 0.1811479777097702 -0.4668998718261719  738318.7136729573
-0.16893650591373444 0.3731101155281067 0.7890375852584839 -0.9719595313072205 0.13961467146873474 -0.46525320410728455  738318.7136730728
-0.17053866386413574 0.37352079153060913 0.789497435092926 -0.9723334312438965 0.13796529173851013 -0.45293527841567993  738318.7136732583
-0.17014528810977936 0.370144248008728 0.7899082899093628 -0.9096729159355164 0.18762105703353882 -0.4311002492904663  738318.7136733045
-0.17158617079257965 0.3707212507724762 0.7896847724914551 -0.9024403095245361 0.16258622705936432 -0.42297786474227905  738318.7136733894
-0.1745336651802063 0.37160706520080566 0.7906548380851746 -0.9036507606506348 0.24809275567531586 -0.38373124599456787  738318.7136737818
-0.17598585784435272 0.372219055891037 0.7904951572418213 -0.8932017087936401 0.29976511001586914 -0.3685607612133026  738318.7136739781
-0.17769894003868103 0.37262436747550964 0.7903268933296204 -0.8821879625320435 0.35898417234420776 -0.3508993089199066  738318.713674013
-0.1806943416595459 0.3738347589969635 0.791069507598877 -0.8562129139900208 0.5279620289802551 -0.32484790682792664  738318.7136740476
-0.1820204257965088 0.37444940209388733 0.7909687757492065 -0.830001711845398 0.6087650656700134 -0.3142015337944031  738318.7136741858
-0.18363350629806519 0.3750794529914856 0.7908665537834167 -0.8128488063812256 0.6165006160736084 -0.3037320077419281  738318.7136742205
-0.18255330622196198 0.3724243640899658 0.7914005517959595 -0.767443835735321 0.6099909543991089 -0.29535573720932007  738318.7136744979
-0.18397212028503418 0.3728225827217102 0.7913587689399719 -0.7495771646499634 0.6105813384056091 -0.277733713388443  738318.7136745552
-0.18696849048137665 0.3743259608745575 0.7898972630500793 -0.7025356292724609 0.5817312598228455 -0.25123655796051025  738318.7136747403
-0.18834666907787323 0.3745562732219696 0.7898063063621521 -0.6907485127449036 0.5749802589416504 -0.23800475895404816  738318.713674913
-0.1900015026330948 0.37529730796813965 0.789704442024231 -0.6542601585388184 0.4843458831310272 -0.22908583283424377  738318.7136751905
-0.1913883239030838 0.37708982825279236 0.7885903716087341 -0.6703842282295227 0.44914013147354126 -0.20977143943309784  738318.7136754357
-0.19286613166332245 0.3776850700378418 0.7884395122528076 -0.6739233732223511 0.3820456564426422 -0.19795066118240356  738318.713675482
-0.19438914954662323 0.3784269094467163 0.7882686257362366 -0.6631311178207397 0.3349609673023224 -0.1906713843345642  738318.7136755858
-0.19588711857795715 0.378886342048645 0.7880881428718567 -0.6425497531890869 0.3610597848892212 -0.17931585013866425  738318.7136757012
-0.1948658525943756 0.3762056529521942 0.7894529104232788 -0.5706811547279358 0.3680185079574585 -0.15923433005809784  738318.7136759898
-0.19630718231201172 0.37701615691185 0.789320707321167 -0.5581228733062744 0.4091683328151703 -0.15636518597602844  738318.7136762323
-0.19785529375076294 0.377686083316803 0.7891602516174316 -0.5230469107627869 0.42403438687324524 -0.14897213876247406  738318.713676313
-0.19940172135829926 0.3783526122570038 0.7889997959136963 -0.5088248252868652 0.4880342185497284 -0.13449726998806  738318.7136764169
-0.2024390697479248 0.37980711460113525 0.788399875164032 -0.44353199005126953 0.553731381893158 -0.13260255753993988  738318.7136765439
-0.20331571996212006 0.3803064823150635 0.7882369160652161 -0.4473617672920227 0.5984305739402771 -0.12842614948749542  738318.7136767632
-0.20483550429344177 0.38104644417762756 0.7880654335021973 -0.41753971576690674 0.5877209305763245 -0.12905852496623993  738318.7136768559
-0.20624034106731415 0.38156574964523315 0.7878883481025696 -0.420357346534729 0.6105591654777527 -0.1200508251786232  738318.7136768906
-0.2079121321439743 0.3821965157985687 0.7851463556289673 -0.39659005403518677 0.595278263092041 -0.12463132292032242  738318.713677121
-0.2095629870891571 0.38288214802742004 0.7848442196846008 -0.34804150462150574 0.5450720191001892 -0.1194898709654808  738318.7136774558
-0.2111268937587738 0.3836360573768616 0.7845457792282104 -0.3188611567020416 0.5175769925117493 -0.11349116265773773  738318.713677525
-0.2091786116361618 0.3803297281265259 0.7849509716033936 -0.26430636644363403 0.5455744862556458 -0.1254049688577652  738318.7136780445
-0.21227188408374786 0.3815535008907318 0.7846686244010925 -0.148528054356575 0.46806809306144714 -0.1137743890285492  738318.7136781602
-0.21536830067634583 0.3830925524234772 0.7842357754707336 -0.008173421956598759 0.4448455274105072 -0.10335195064544678  738318.7136782177
-0.21693900227546692 0.3837960660457611 0.7840040326118469 0.07351583987474442 0.4808666408061981 -0.09896879643201828  738318.7136784024
-0.21858389675617218 0.3844660222530365 0.7861473560333252 0.13660813868045807 0.5572623014450073 -0.10022810101509094  738318.713678472
-0.220180943608284 0.38515734672546387 0.7860589027404785 0.1761348396539688 0.5848952531814575 -0.10965411365032196  738318.7136785066
-0.21890300512313843 0.3828687071800232 0.786470353603363 0.29119136929512024 0.6250855922698975 -0.12440911680459976  738318.7136787372
-0.22364145517349243 0.3846839666366577 0.7837809324264526 0.38115236163139343 0.6235451698303223 -0.16926495730876923  738318.7136789795
-0.22388575971126556 0.3842840790748596 0.7836076021194458 0.38887545466423035 0.556095540523529 -0.1889757215976715  738318.71367917
-0.2254515141248703 0.38483843207359314 0.7834282517433167 0.3934873044490814 0.5176141262054443 -0.19876964390277863  738318.7136794121
-0.22875972092151642 0.38584256172180176 0.7830500602722168 0.40795549750328064 0.4373736083507538 -0.2284979671239853  738318.7136794582
-0.2278459072113037 0.3852693736553192 0.7832661867141724 0.3383104205131531 0.19084766507148743 -0.30197736620903015  738318.7136797126
-0.22938409447669983 0.3857751786708832 0.7831223607063293 0.3067420721054077 0.167222261428833 -0.31388619542121887  738318.7136798165
-0.23098546266555786 0.3864673674106598 0.7822318077087402 0.2898810803890228 0.13260476291179657 -0.3176707923412323  738318.7136798972
-0.2325342297554016 0.3868630528450012 0.7820427417755127 0.2539735436439514 0.0901501476764679 -0.32483425736427307  738318.7136803144
-0.2340366542339325 0.38736164569854736 0.7818657755851746 0.20489442348480225 0.11029507964849472 -0.3274296522140503  738318.7136804526
-0.23692992329597473 0.38762232661247253 0.7814320921897888 0.11426211148500443 0.18228305876255035 -0.3444817364215851  738318.7136806258
-0.23821993172168732 0.3878873288631439 0.7795083522796631 0.091457799077034 0.24337245523929596 -0.35301950573921204  738318.7136807989
-0.23972058296203613 0.3883427381515503 0.7790999412536621 0.10640231519937515 0.3344435691833496 -0.352605402469635  738318.7136809378
-0.2412390112876892 0.3891505002975464 0.7786805033683777 0.10595154017210007 0.3955610990524292 -0.364633709192276  738318.7136809725
-0.24275128543376923 0.38961443305015564 0.77826988697052 0.14099742472171783 0.44059082865715027 -0.3682815134525299  738318.713681274
-0.2415631115436554 0.38836655020713806 0.7802032828330994 0.18401990830898285 0.5671746134757996 -0.3515196740627289  738318.7136814933
-0.2432234287261963 0.38884449005126953 0.7799394726753235 0.2180984765291214 0.5522142648696899 -0.3435005843639374  738318.7136816318
-0.24701227247714996 0.389740526676178 0.7795271873474121 0.2852447032928467 0.3699999749660492 -0.3024287223815918  738318.7136817939
-0.24985918402671814 0.3908311128616333 0.7791165709495544 0.2833368480205536 0.1810990422964096 -0.27321866154670715  738318.7136820706
-0.2513521909713745 0.39123615622520447 0.7789507508277893 0.2563639283180237 0.10333956032991409 -0.25639837980270386  738318.7136821747
-0.25298500061035156 0.3916279375553131 0.7788010835647583 0.24316731095314026 0.06499718874692917 -0.2401736080646515  738318.7136823244
-0.25615131855010986 0.39233723282814026 0.7737641334533691 0.21140624582767487 0.12974447011947632 -0.21704941987991333  738318.7136824285
-0.2541140615940094 0.38962316513061523 0.7740219831466675 0.30825966596603394 0.2156924158334732 -0.18750542402267456  738318.7136824976
-0.25569260120391846 0.3903760313987732 0.7737203240394592 0.33873915672302246 0.32554513216018677 -0.17012399435043335  738318.7136827519
-0.2571685314178467 0.3906725347042084 0.7713831067085266 0.3830971121788025 0.4524203836917877 -0.1530805379152298  738318.7136827977
-0.25866207480430603 0.39096298813819885 0.770950436592102 0.41095295548439026 0.5319336652755737 -0.13991323113441467  738318.7136828785
-0.26017269492149353 0.3909431993961334 0.770524263381958 0.43310481309890747 0.5934041738510132 -0.12309226393699646  738318.7136829775
-0.2616848051548004 0.3912084996700287 0.770107626914978 0.4735924303531647 0.6304405927658081 -0.11796317994594574  738318.7136830932
-0.2632075548171997 0.391465961933136 0.7697024345397949 0.4997318983078003 0.6347318291664124 -0.11475010961294174  738318.7136831972
-0.26472318172454834 0.3917153477668762 0.766260027885437 0.5314725041389465 0.6654112935066223 -0.10287317633628845  738318.7136834045
-0.2662673592567444 0.39195600152015686 0.7657067775726318 0.5753868818283081 0.6518789529800415 -0.09294051676988602  738318.713683486
-0.2679961919784546 0.391719251871109 0.764636754989624 0.5874001383781433 0.5760542154312134 -0.07997658103704453  738318.7136836017
-0.26630502939224243 0.39143818616867065 0.7674904465675354 0.4101390838623047 0.3939914107322693 -0.12383531033992767  738318.7136839135
-0.26783281564712524 0.39185741543769836 0.7672033309936523 0.3665606677532196 0.3143623471260071 -0.1265723556280136  738318.7136839477
-0.26917949318885803 0.39200806617736816 0.7669427990913391 0.3220582902431488 0.2853539288043976 -0.11796978116035461  738318.713684179
-0.2721196711063385 0.3922681212425232 0.7685639262199402 0.2488037645816803 0.18510667979717255 -0.11384598910808563  738318.7136843171
-0.2735549509525299 0.39263468980789185 0.7684558629989624 0.2094687521457672 0.19443470239639282 -0.11348933726549149  738318.7136843979
-0.2750331163406372 0.39271557331085205 0.7683786749839783 0.19297105073928833 0.2597200870513916 -0.11574259400367737  738318.7136845826
-0.2751198709011078 0.39180994033813477 0.7694562077522278 0.20392677187919617 0.449550598859787 -0.1088385283946991  738318.7136846753
-0.2779967784881592 0.39212313294410706 0.7695451378822327 0.20930740237236023 0.623346209526062 -0.11282532662153244  738318.7136850558
-0.27944958209991455 0.39227423071861267 0.7696138620376587 0.24293728172779083 0.6576688885688782 -0.11590055376291275  738318.713685079
-0.28058478236198425 0.39267441630363464 0.7709249258041382 0.23941828310489655 0.6984891891479492 -0.12384814769029617  738318.7136852059
-0.2820487320423126 0.39282655715942383 0.7710992097854614 0.2423408329486847 0.7145406603813171 -0.14525260031223297  738318.7136852294
-0.2832443118095398 0.392800897359848 0.771294355392456 0.22232134640216827 0.6884332895278931 -0.14996498823165894  738318.7136852867
-0.28481584787368774 0.39293596148490906 0.771499514579773 0.20006375014781952 0.6714413166046143 -0.16414998471736908  738318.7136854368
-0.2854123115539551 0.3919127881526947 0.7736235857009888 0.09134509414434433 0.6771059632301331 -0.19606800377368927  738318.7136855407
-0.28852009773254395 0.3921566903591156 0.7742647528648376 0.07017254084348679 0.6746411323547363 -0.21856136620044708  738318.713685691
-0.28996479511260986 0.3922584354877472 0.7746022343635559 0.04880734533071518 0.6609888076782227 -0.23567458987236023  738318.7136859138
-0.2914891541004181 0.39237478375434875 0.7741631269454956 0.021231185644865036 0.6730126142501831 -0.24344423413276672  738318.7136860528
-0.29284101724624634 0.3925545811653137 0.7744417786598206 -0.019682379439473152 0.6969682574272156 -0.24937693774700165  738318.7136861683
-0.29431667923927307 0.3929179906845093 0.7747328281402588 -0.03583294153213501 0.6711183190345764 -0.2719080448150635  738318.7136864684
-0.29765552282333374 0.3925779461860657 0.7739936709403992 -0.027050796896219254 0.7022575736045837 -0.30547285079956055  738318.713686515
-0.29553890228271484 0.39108797907829285 0.7745864391326904 -0.006174627225846052 0.6769478917121887 -0.3167397975921631  738318.7136866304
-0.29705414175987244 0.39116111397743225 0.7747980356216431 -0.04969107359647751 0.7336459755897522 -0.3355824649333954  738318.7136871049
-0.2985319495201111 0.3913269340991974 0.7749935984611511 -0.061037302017211914 0.7286990880966187 -0.35907185077667236  738318.7136871741
-0.30017316341400146 0.39150017499923706 0.7751489281654358 -0.09914562106132507 0.7327196002006531 -0.38992348313331604  738318.7136872318
-0.3016572594642639 0.3915306329727173 0.7735859751701355 -0.16964781284332275 0.7744701504707336 -0.42041289806365967  738318.7136873129
-0.3031613230705261 0.39157506823539734 0.7736003398895264 -0.1967536360025406 0.7934107184410095 -0.455414742231369  738318.713687532
-0.3078911602497101 0.3919503688812256 0.7755579948425293 -0.35458195209503174 0.7256107926368713 -0.5818983316421509  738318.7136877513
-0.3095032572746277 0.3920227885246277 0.7756216526031494 -0.4115845859050751 0.6515269875526428 -0.6304473876953125  738318.7136878667
-0.3111265003681183 0.39213207364082336 0.7756726145744324 -0.4624107778072357 0.6260778903961182 -0.679196834564209  738318.7136879822
-0.30871614813804626 0.3904508948326111 0.7761774063110352 -0.5131226181983948 0.5812275409698486 -0.6869462132453918  738318.7136881091
-0.3100881576538086 0.39060044288635254 0.7762664556503296 -0.5445697903633118 0.5039585828781128 -0.7256016731262207  738318.7136881673
-0.31187301874160767 0.3906872868537903 0.7750632762908936 -0.5523263216018677 0.4656065106391907 -0.7691801190376282  738318.7136885592
-0.31344497203826904 0.3907913863658905 0.7750247120857239 -0.5712369084358215 0.4974692165851593 -0.8198076486587524  738318.7136886055
-0.3151720464229584 0.3909951150417328 0.7749369740486145 -0.5855931043624878 0.45115435123443604 -0.8676909804344177  738318.7136886863
-0.31830334663391113 0.3911602199077606 0.7768167853355408 -0.6547244191169739 0.4249822199344635 -0.9723939299583435  738318.7136888133
-0.32137641310691833 0.3915099501609802 0.776960015296936 -0.7367711067199707 0.4477107524871826 -1.0533663034439087  738318.7136889633
-0.32044607400894165 0.39019861817359924 0.777308464050293 -0.8341878056526184 0.3561800718307495 -1.1312304735183716  738318.7136890559
-0.32341375946998596 0.39041706919670105 0.7729073762893677 -0.8946273326873779 0.36440929770469666 -1.2091063261032104  738318.7136892636
-0.3249998986721039 0.39060404896736145 0.772656261920929 -0.9191028475761414 0.3118128180503845 -1.2523472309112549  738318.7136894601
-0.32639479637145996 0.3907284736633301 0.7724277973175049 -0.9169750213623047 0.26455414295196533 -1.3027375936508179  738318.7136894944
-0.3292279541492462 0.3910691738128662 0.7701978087425232 -0.8922138214111328 0.2256944179534912 -1.3433433771133423  738318.7136895289
-0.3324759006500244 0.39149171113967896 0.769459068775177 -0.818584144115448 0.2019587755203247 -1.3849163055419922  738318.7136897367
-0.33403241634368896 0.39176538586616516 0.7690209746360779 -0.7724830508232117 0.2829481065273285 -1.3897773027420044  738318.7136897829
-0.3355935513973236 0.3920535445213318 0.7686828970909119 -0.7409199476242065 0.4023720920085907 -1.3934235572814941  738318.713689979
-0.33352339267730713 0.39147984981536865 0.7685510516166687 -0.6115469932556152 0.4383312463760376 -1.4149247407913208  738318.7136902561
-0.3348747789859772 0.3914262652397156 0.768265962600708 -0.5209369659423828 0.5499088764190674 -1.4228293895721436  738318.7136904062
-0.3376648426055908 0.39224961400032043 0.7671830654144287 -0.37667256593704224 0.7473022937774658 -1.4160410165786743  738318.713690487
-0.3391532301902771 0.3925175666809082 0.7669070959091187 -0.30533796548843384 0.7341176271438599 -1.4299991130828857  738318.7136906255
-0.34222549200057983 0.39311954379081726 0.7642596364021301 -0.23503552377223969 0.7097181677818298 -1.4294180870056152  738318.7136908103
-0.3436543047428131 0.393329381942749 0.7639002203941345 -0.219125434756279 0.7072626948356628 -1.4249292612075806  738318.7136908452
-0.34518444538116455 0.393673837184906 0.7635409832000732 -0.1918400526046753 0.692865252494812 -1.429280400276184  738318.7136910876
-0.342925488948822 0.39326974749565125 0.7637072205543518 -0.1912911981344223 0.6857980489730835 -1.4232202768325806  738318.7136912838
-0.3443372845649719 0.3933635354042053 0.7636028528213501 -0.14868617057800293 0.6534780859947205 -1.4123488664627075  738318.7136915823
-0.34606683254241943 0.3939344882965088 0.7632977366447449 -0.10148362070322037 0.6706290245056152 -1.3912535905838013  738318.7136917673
-0.3475726842880249 0.39428848028182983 0.7630537748336792 -0.029885385185480118 0.7047387361526489 -1.3767505884170532  738318.713691917
-0.3489833474159241 0.39426445960998535 0.7628684043884277 0.0006381593993864954 0.8098238706588745 -1.3606001138687134  738318.7136920905
-0.3504566252231598 0.3946431279182434 0.7627162337303162 0.06443148106336594 0.8413146734237671 -1.3398936986923218  738318.7136921363
-0.35358163714408875 0.39525339007377625 0.7625449299812317 0.14665526151657104 0.8971028327941895 -1.3157378435134888  738318.7136921709
-0.3540401756763458 0.3954821228981018 0.7613952159881592 0.13720561563968658 0.8823062181472778 -1.2998172044754028  738318.7136924249
-0.35563817620277405 0.3957991302013397 0.7612794041633606 0.11579704284667969 0.8547133803367615 -1.2969928979873657  738318.7136926326
-0.3570980131626129 0.3960254490375519 0.7611706256866455 0.1069100871682167 0.8251866698265076 -1.264563798904419  738318.7136927487
-0.3586353361606598 0.39639776945114136 0.761070191860199 0.13442009687423706 0.7705482244491577 -1.2537190914154053  738318.713692911
-0.36006805300712585 0.3965957462787628 0.7609795928001404 0.14662055671215057 0.7534113526344299 -1.2353055477142334  738318.7136931992
-0.36340320110321045 0.3972765803337097 0.7620607018470764 0.25900307297706604 0.6909046769142151 -1.1736544370651245  738318.7136933032
-0.3650188148021698 0.397586852312088 0.7620665431022644 0.30700892210006714 0.7035068273544312 -1.141374111175537  738318.7136934185
-0.36651334166526794 0.39793410897254944 0.7620993256568909 0.3389015793800354 0.6763072609901428 -1.1139637231826782  738318.7136935226
-0.36467838287353516 0.3971949815750122 0.7621010541915894 0.3916639983654022 0.673259973526001 -1.094805121421814  738318.7136935801
-0.3696005940437317 0.39787960052490234 0.7624323964118958 0.45525819063186646 0.6629695296287537 -0.9885400533676147  738318.7136938919
-0.3711715042591095 0.39800140261650085 0.7627071738243103 0.4265742897987366 0.642534613609314 -0.9590306282043457  738318.7136940073
-0.3730095326900482 0.39838916063308716 0.762866199016571 0.4108301103115082 0.5809719562530518 -0.9431301951408386  738318.7136941227
-0.37781453132629395 0.3990715742111206 0.7633959650993347 0.3374781012535095 0.477292537689209 -0.8594773411750793  738318.7136942039
-0.3794938027858734 0.3992862403392792 0.7633911371231079 0.33510708808898926 0.45071616768836975 -0.8292673230171204  738318.7136943189
-0.3788131773471832 0.39857378602027893 0.7642829418182373 0.33425959944725037 0.45297908782958984 -0.8192728161811829  738318.7136944574
-0.3835822343826294 0.399152934551239 0.7620120048522949 0.4192887842655182 0.3278774917125702 -0.7504851222038269  738318.7136946999
-0.384761780500412 0.3988211154937744 0.7619882225990295 0.43583470582962036 0.23866493999958038 -0.7265064120292664  738318.7136948153
-0.3864040672779083 0.3989618718624115 0.7619680166244507 0.43119412660598755 0.16954362392425537 -0.7105797529220581  738318.7136949308
-0.38852477073669434 0.3994216024875641 0.7619388103485107 0.4313289225101471 0.10858600586652756 -0.6863640546798706  738318.7136952328
-0.3898915648460388 0.39927738904953003 0.7643287181854248 0.42000922560691833 0.02718999609351158 -0.6677980422973633  738318.7136952674
-0.3914394974708557 0.3993402421474457 0.764435887336731 0.3687361776828766 -0.023610295727849007 -0.6501781940460205  738318.7136953826
-0.39308270812034607 0.39946800470352173 0.7645447850227356 0.33923137187957764 -0.0740351751446724 -0.6305938363075256  738318.7136955096
-0.39203813672065735 0.3988324701786041 0.7652967572212219 0.35811352729797363 0.0010760407894849777 -0.616951048374176  738318.7136956134
-0.39830726385116577 0.398789644241333 0.7671462893486023 0.24122530221939087 0.034533414989709854 -0.5665495991706848  738318.7136960751
-0.4000396430492401 0.39902880787849426 0.7678824663162231 0.22540965676307678 0.10021185129880905 -0.5475170016288757  738318.7136962136
-0.40168440341949463 0.3990636169910431 0.7679826617240906 0.2268393486738205 0.13515704870224 -0.5394660234451294  738318.7136962597
-0.4033311903476715 0.3990946114063263 0.7680731415748596 0.24943819642066956 0.18245643377304077 -0.5297674536705017  738318.7136964214
-0.40489253401756287 0.39838501811027527 0.768132746219635 0.2964799702167511 0.2281695008277893 -0.513876736164093  738318.7136966063
-0.4065425395965576 0.39838284254074097 0.7681812644004822 0.35684022307395935 0.23719890415668488 -0.5068901181221008  738318.7136968026
-0.4063171148300171 0.3979128897190094 0.7670056819915771 0.5151062607765198 0.19825680553913116 -0.4627106487751007  738318.7136968946
-0.41111451387405396 0.39766618609428406 0.7675539255142212 0.5357272028923035 0.10084504634141922 -0.43716737627983093  738318.7136971717
-0.41286206245422363 0.39758551120758057 0.7674662470817566 0.5369938611984253 0.0648760199546814 -0.443729966878891  738318.7136972987
-0.4145006239414215 0.39760932326316833 0.7673686742782593 0.4963560104370117 0.03522896394133568 -0.43891432881355286  738318.7136974845
-0.4160063862800598 0.3978619873523712 0.7672374844551086 0.464280903339386 -0.014588735066354275 -0.4409443140029907  738318.7136975768
-0.4149402976036072 0.3970121145248413 0.7677226662635803 0.36919456720352173 0.005587617866694927 -0.4598861634731293  738318.7136976345
-0.4196023643016815 0.39658957719802856 0.7671753168106079 0.21944935619831085 -0.023473357781767845 -0.4620261490345001  738318.7136979001
-0.4214732050895691 0.39771953225135803 0.7669922113418579 0.1447683423757553 0.019491733983159065 -0.45992350578308105  738318.7136980852
-0.4229942858219147 0.39753708243370056 0.7667942643165588 0.10038401931524277 0.05547402799129486 -0.45892810821533203  738318.7136982695
-0.4260134696960449 0.3974463939666748 0.7647203207015991 -0.014560913667082787 0.12907373905181885 -0.46130672097206116  738318.7136983965
-0.4275066554546356 0.3973085582256317 0.7644350528717041 -0.08339234441518784 0.14753961563110352 -0.46522849798202515  738318.7136986388
-0.424584299325943 0.39694744348526 0.7646624445915222 -0.09546858072280884 0.15315906703472137 -0.48353952169418335  738318.7136989273
-0.4274040162563324 0.3965719938278198 0.7641318440437317 -0.20421889424324036 0.19523559510707855 -0.504598081111908  738318.7136992044
-0.42885974049568176 0.3964338004589081 0.7653771638870239 -0.26707255840301514 0.19711421430110931 -0.5139055848121643  738318.7136993663
-0.43036240339279175 0.39631903171539307 0.7651931047439575 -0.35198119282722473 0.22073455154895782 -0.5322906970977783  738318.7136994125
-0.4316427707672119 0.3961750864982605 0.7650224566459656 -0.39211544394493103 0.2283560037612915 -0.5441269278526306  738318.7136997242
-0.43307769298553467 0.395905077457428 0.7648617029190063 -0.41160500049591064 0.22964145243167877 -0.5637597441673279  738318.7136998973
-0.43452802300453186 0.3957487940788269 0.7656020522117615 -0.4519679546356201 0.2552999258041382 -0.5883828997612  738318.7137000241
-0.43613943457603455 0.39551877975463867 0.7655112743377686 -0.48720285296440125 0.2569124698638916 -0.6109710335731506  738318.7137000702
-0.4375784397125244 0.3957548141479492 0.7654240727424622 -0.5447298288345337 0.24696265161037445 -0.6329663395881653  738318.7137002322
-0.4343610405921936 0.3951380252838135 0.7658587694168091 -0.6044282913208008 0.28412047028541565 -0.6425701975822449  738318.713700278
-0.4358055889606476 0.3950508236885071 0.7657984495162964 -0.6536443829536438 0.28082209825515747 -0.6615450382232666  738318.7137005319
-0.4373140335083008 0.39527714252471924 0.7626449465751648 -0.6859294772148132 0.25618672370910645 -0.6817094087600708  738318.713700613
-0.4401639699935913 0.3950624465942383 0.7622053027153015 -0.7475483417510986 0.2449617087841034 -0.7206289768218994  738318.71370074
-0.44162601232528687 0.3950292468070984 0.7619747519493103 -0.748836100101471 0.20454998314380646 -0.7411019206047058  738318.7137008554
-0.4429289698600769 0.3955620229244232 0.762606143951416 -0.7962417602539062 0.194197878241539 -0.7519428730010986  738318.713700959
-0.4444727599620819 0.39551809430122375 0.7624039053916931 -0.8420940041542053 0.1701325923204422 -0.7585690021514893  738318.7137010052
-0.4459417164325714 0.39554229378700256 0.7622056603431702 -0.8670476078987122 0.15772594511508942 -0.766463041305542  738318.7137012822
-0.4433705508708954 0.3961476981639862 0.7656413912773132 -0.9302496314048767 0.2094084620475769 -0.7570556998252869  738318.7137013978
-0.4446937143802643 0.39617419242858887 0.765682578086853 -0.9392820000648499 0.18953657150268555 -0.767473578453064  738318.7137014673
-0.44869232177734375 0.39654844999313354 0.7659410238265991 -0.9440963268280029 0.29705357551574707 -0.7956767082214355  738318.71370164
-0.4501408636569977 0.3967704474925995 0.7636656165122986 -0.9331248998641968 0.33893585205078125 -0.8082552552223206  738318.7137016866
-0.451487272977829 0.3968528211116791 0.7635946869850159 -0.9258273839950562 0.3720243573188782 -0.8184154033660889  738318.7137018021
-0.45302772521972656 0.3970596492290497 0.7635259628295898 -0.8942908048629761 0.3837750554084778 -0.8252155184745789  738318.713701894
-0.4542216956615448 0.39742138981819153 0.7634546756744385 -0.8850934505462646 0.3988701403141022 -0.8442978858947754  738318.7137020852
-0.4556310176849365 0.3976493179798126 0.7643561959266663 -0.8738526105880737 0.40546584129333496 -0.8669443130493164  738318.7137022006
-0.4570440351963043 0.39788955450057983 0.7643285989761353 -0.8418170809745789 0.3736723065376282 -0.876697301864624  738318.7137023505
-0.4578337073326111 0.3980043828487396 0.7643258571624756 -0.8322766423225403 0.3199785351753235 -0.8976597785949707  738318.7137023852
-0.4526556432247162 0.39804351329803467 0.7648773789405823 -0.8508056402206421 0.26913386583328247 -0.9014756083488464  738318.7137026391
-0.4539412260055542 0.3983636796474457 0.7649217844009399 -0.8231910467147827 0.2203715592622757 -0.9197503328323364  738318.7137029393
-0.45523524284362793 0.3986617922782898 0.764583170413971 -0.792943000793457 0.16827023029327393 -0.9256887435913086  738318.7137030428
-0.457719624042511 0.3989439010620117 0.7646561861038208 -0.6784694194793701 0.1914750188589096 -0.9440128803253174  738318.7137031701
-0.4591021239757538 0.399224191904068 0.7646479606628418 -0.6246383786201477 0.16266939043998718 -0.9554154276847839  738318.7137033258
-0.4604133367538452 0.399565726518631 0.7658533453941345 -0.5956552028656006 0.16173799335956573 -0.9605357646942139  738318.713703591
-0.46135297417640686 0.39973050355911255 0.7657835483551025 -0.5633134245872498 0.18242478370666504 -0.9615565538406372  738318.7137036261
-0.46400415897369385 0.40036600828170776 0.7655795812606812 -0.49685248732566833 0.23038125038146973 -0.9752485156059265  738318.7137038223
-0.45881202816963196 0.40060701966285706 0.7629336714744568 -0.5277075171470642 0.25618115067481995 -0.9662214517593384  738318.7137040532
-0.46158653497695923 0.4016176462173462 0.7625190019607544 -0.44040730595588684 0.3392098546028137 -0.9785557985305786  738318.7137041453
-0.46285367012023926 0.4020008146762848 0.7623230218887329 -0.4418624937534332 0.38490402698516846 -0.977988064289093  738318.7137044373
-0.4652664363384247 0.402993768453598 0.7621939778327942 -0.34646961092948914 0.4907982051372528 -0.9904312491416931  738318.7137046449
-0.4664989411830902 0.40342703461647034 0.7618566751480103 -0.3317505419254303 0.5474586486816406 -0.9935656785964966  738318.7137047605
-0.4677393138408661 0.4038657248020172 0.761424720287323 -0.26610276103019714 0.5910431742668152 -0.9968884587287903  738318.7137048646
-0.4680320918560028 0.40397295355796814 0.7608920335769653 -0.2255217581987381 0.6113986372947693 -0.9987896084785461  738318.713705049
-0.4663738012313843 0.4044772684574127 0.7589157819747925 -0.061446867883205414 0.8411774635314941 -1.0883288383483887  738318.7137053492
-0.4675561487674713 0.40489664673805237 0.7579663991928101 -0.018920613452792168 0.8968309760093689 -1.1071231365203857  738318.7137055469
-0.4687521755695343 0.4053170084953308 0.7569441199302673 0.035031188279390335 0.9525684118270874 -1.1207325458526611  738318.7137056045
-0.46974676847457886 0.40531179308891296 0.7578835487365723 0.09065013378858566 1.0064306259155273 -1.1225062608718872  738318.7137057546
-0.47096723318099976 0.40571701526641846 0.7569250464439392 0.1153206154704094 1.0300166606903076 -1.140612244606018  738318.7137060085
-0.472205251455307 0.40612083673477173 0.7559712529182434 0.13654835522174835 1.061660885810852 -1.155605673789978  738318.7137062048
-0.47346165776252747 0.40652281045913696 0.7550396919250488 0.1903660148382187 1.0994478464126587 -1.1681941747665405  738318.7137062859
-0.4747234582901001 0.4069100320339203 0.7520937919616699 0.22749243676662445 1.1289726495742798 -1.1853137016296387  738318.7137063895
-0.4700961112976074 0.40719375014305115 0.7516297698020935 0.30858510732650757 1.1778974533081055 -1.2656166553497314  738318.7137064126
-0.471327543258667 0.40751031041145325 0.7506504058837891 0.3557020425796509 1.1759238243103027 -1.2920432090759277  738318.7137067242
-0.4725137948989868 0.40770578384399414 0.7496670484542847 0.3801747262477875 1.1871017217636108 -1.2982558012008667  738318.7137068396
-0.473768413066864 0.4080677330493927 0.7486952543258667 0.3995727598667145 1.1659055948257446 -1.3163166046142578  738318.7137069781
-0.47503092885017395 0.4082302451133728 0.748604953289032 0.4320017993450165 1.1811776161193848 -1.3379263877868652  738318.7137071287
-0.47632578015327454 0.40857255458831787 0.7476779818534851 0.473375529050827 1.2138525247573853 -1.3504713773727417  738318.7137071976
-0.47889411449432373 0.4096086323261261 0.7458187341690063 0.5217605233192444 1.2370598316192627 -1.3831692934036255  738318.7137072782
-0.4756205379962921 0.4093676805496216 0.7466124892234802 0.6157511472702026 1.3319216966629028 -1.4465651512145996  738318.7137074168
-0.47711431980133057 0.40965309739112854 0.7458263039588928 0.6290313601493835 1.3479321002960205 -1.4456982612609863  738318.713707463
-0.47959768772125244 0.4100554585456848 0.7443115711212158 0.7001019716262817 1.3677852153778076 -1.461309790611267  738318.713707799
-0.481080561876297 0.4105292856693268 0.7420957684516907 0.7246291637420654 1.3792215585708618 -1.4539722204208374  738318.713707822
-0.4825032949447632 0.41078341007232666 0.7413181662559509 0.7357777953147888 1.3825294971466064 -1.4505503177642822  738318.7137079948
-0.4868038594722748 0.41166144609451294 0.7388913631439209 0.8031094074249268 1.3954113721847534 -1.4379640817642212  738318.7137080525
-0.48832452297210693 0.41187095642089844 0.7388968467712402 0.8072963356971741 1.3723076581954956 -1.4354244470596313  738318.7137082949
-0.48970192670822144 0.4118892252445221 0.7382523417472839 0.7962071299552917 1.35879385471344 -1.431195616722107  738318.713708468
-0.48672476410865784 0.411717027425766 0.7377517223358154 0.7697034478187561 1.4647284746170044 -1.4433234930038452  738318.713708503
-0.4898539185523987 0.41195276379585266 0.7393538951873779 0.7655246257781982 1.4582782983779907 -1.4375412464141846  738318.7137089544
-0.49305471777915955 0.41214367747306824 0.7384337782859802 0.7711771130561829 1.478750228881836 -1.4138329029083252  738318.713709093
-0.49468839168548584 0.41222119331359863 0.7374557852745056 0.7665536403656006 1.4635624885559082 -1.415827989578247  738318.71370922
-0.49503815174102783 0.4115283191204071 0.7369323372840881 0.7649714350700378 1.4597771167755127 -1.413765788078308  738318.7137092659
-0.4966851472854614 0.41159167885780334 0.7364003658294678 0.724184513092041 1.4639790058135986 -1.4101369380950928  738318.7137093353
-0.4983537793159485 0.4116067886352539 0.7358843088150024 0.673274040222168 1.4857734441757202 -1.4173651933670044  738318.7137096471
-0.49443674087524414 0.411445677280426 0.7360934615135193 0.6554232239723206 1.541930913925171 -1.4646633863449097  738318.7137098452
-0.4960777461528778 0.41141247749328613 0.7362673282623291 0.5512502193450928 1.5917221307754517 -1.4665108919143677  738318.7137098913
-0.5006146430969238 0.4117472469806671 0.7348707318305969 0.2836081087589264 1.699163794517517 -1.480780839920044  738318.7137100761
-0.5027762055397034 0.4118329882621765 0.7360565662384033 0.21794110536575317 1.7388792037963867 -1.482071876525879  738318.713710304
-0.5043627619743347 0.411853164434433 0.7356435060501099 0.1611558049917221 1.731635332107544 -1.48345148563385  738318.7137105467
-0.5058881044387817 0.4114685356616974 0.735266923904419 0.06557151675224304 1.7067546844482422 -1.4914350509643555  738318.7137106273
-0.508226752281189 0.41184812784194946 0.7349029183387756 -0.012278616428375244 1.7082090377807617 -1.5090728998184204  738318.71371072
-0.5099446773529053 0.4114503860473633 0.7345502376556396 -0.053744733333587646 1.6544787883758545 -1.513700008392334  738318.7137107543
-0.5118255019187927 0.4113994538784027 0.7338106036186218 -0.11437667161226273 1.6110918521881104 -1.5236555337905884  738318.7137109836
-0.5078092813491821 0.4118378162384033 0.7337632179260254 -0.13125981390476227 1.6156153678894043 -1.5367456674575806  738318.7137111452
-0.5115050673484802 0.41186460852622986 0.7327473759651184 -0.20633266866207123 1.4949599504470825 -1.5678305625915527  738318.7137113669
-0.5132078528404236 0.4118133783340454 0.728293240070343 -0.2722446322441101 1.4134247303009033 -1.582794427871704  738318.7137115634
-0.5150932669639587 0.4119034707546234 0.7274836301803589 -0.32797926664352417 1.3576797246932983 -1.609924077987671  738318.7137115861
-0.5168704390525818 0.4118221700191498 0.7266440391540527 -0.3767513632774353 1.2851834297180176 -1.6323434114456177  738318.7137118058
-0.5187351703643799 0.4118282198905945 0.7257984280586243 -0.4047572910785675 1.188161849975586 -1.6323866844177246  738318.7137119209
-0.5208271741867065 0.41183120012283325 0.7249354124069214 -0.41600245237350464 1.1180819272994995 -1.6487141847610474  738318.713712117
-0.52281653881073 0.41176870465278625 0.7210991382598877 -0.4515807032585144 1.0630683898925781 -1.66438627243042  738318.7137123018
-0.5206865668296814 0.41249844431877136 0.7195551991462708 -0.48918190598487854 0.8364686369895935 -1.6973140239715576  738318.7137126251
-0.524462878704071 0.4122408330440521 0.7190136313438416 -0.4868738353252411 0.6860277652740479 -1.710037350654602  738318.713712879
-0.5264275670051575 0.41271984577178955 0.7178515195846558 -0.5315711498260498 0.6332171559333801 -1.6967761516571045  738318.7137129136
-0.5283019542694092 0.41268983483314514 0.7166355848312378 -0.5406476259231567 0.5331105589866638 -1.690208077430725  738318.7137130181
-0.5320691466331482 0.41292762756347656 0.7158762812614441 -0.5803784132003784 0.43036696314811707 -1.673872947692871  738318.7137130757
-0.5358914732933044 0.41281378269195557 0.7135295867919922 -0.5568844079971313 0.3533099591732025 -1.6494815349578857  738318.713713122
-0.537732720375061 0.41257262229919434 0.7124344110488892 -0.5741614103317261 0.31976839900016785 -1.6375646591186523  738318.7137132029
-0.5357338190078735 0.41492849588394165 0.7093722820281982 -0.6059347987174988 0.22998520731925964 -1.5978230237960815  738318.7137134798
-0.5394805073738098 0.41543319821357727 0.7072597742080688 -0.5020639300346375 0.23788592219352722 -1.5622477531433105  738318.7137135837
-0.5412587523460388 0.415493369102478 0.7061516642570496 -0.4624483287334442 0.21622827649116516 -1.5584391355514526  738318.7137137684
-0.5432212948799133 0.415750116109848 0.7041856646537781 -0.41334405541419983 0.2200123518705368 -1.5472396612167358  738318.7137138838
-0.5450552701950073 0.415969580411911 0.7030714750289917 -0.3346736431121826 0.2762823700904846 -1.5345162153244019  738318.7137141839
-0.546850860118866 0.4162024259567261 0.7019871473312378 -0.23517169058322906 0.2951284945011139 -1.5205540657043457  738318.7137142186
-0.5503304600715637 0.4165498614311218 0.7022859454154968 -0.042656444013118744 0.2714676558971405 -1.5146613121032715  738318.713714334
-0.5521161556243896 0.41679680347442627 0.7013949751853943 0.02545754238963127 0.2845020294189453 -1.5042786598205566  738318.7137144957
-0.5479464530944824 0.41816505789756775 0.7009551525115967 0.13684597611427307 0.22785376012325287 -1.505277395248413  738318.7137147033
-0.5510845184326172 0.41830334067344666 0.6993201375007629 0.3063333034515381 0.11538781970739365 -1.493831753730774  738318.7137148996
-0.5528646111488342 0.4185221493244171 0.6983969211578369 0.38637199997901917 0.09305430948734283 -1.4702192544937134  738318.7137150727
-0.5550321936607361 0.4194128215312958 0.6968991160392761 0.4786336421966553 0.023897379636764526 -1.4427231550216675  738318.7137151882
-0.5569708347320557 0.41949841380119324 0.6961846947669983 0.5106171369552612 0.03756989166140556 -1.4233083724975586  738318.7137152575
-0.5586742758750916 0.4195629358291626 0.695837676525116 0.5262745022773743 0.0044533428736031055 -1.3956059217453003  738318.7137154882
-0.5581486821174622 0.422101229429245 0.6945701241493225 0.5743369460105896 0.037146296352148056 -1.3400970697402954  738318.7137155229
-0.5615590214729309 0.422188401222229 0.6901941895484924 0.6050646305084229 0.056694284081459045 -1.2993323802947998  738318.7137156614
-0.5644371509552002 0.4225188195705414 0.6888604760169983 0.6702762842178345 0.007485053967684507 -1.2388743162155151  738318.7137157999
-0.5660829544067383 0.42266547679901123 0.6881963610649109 0.7378729581832886 0.025376254692673683 -1.2093926668167114  738318.7137160883
-0.5676516890525818 0.42274007201194763 0.685030996799469 0.765731155872345 0.06455530226230621 -1.1810671091079712  738318.7137161802
-0.5684561133384705 0.4245636463165283 0.6815483570098877 0.7688348293304443 0.1435917168855667 -1.06753671169281  738318.7137163649
-0.5699606537818909 0.42472901940345764 0.6807111501693726 0.7774154543876648 0.15048055350780487 -1.0413302183151245  738318.7137165038
-0.5714707970619202 0.42476537823677063 0.6798609495162964 0.7353715300559998 0.19051577150821686 -1.0268033742904663  738318.7137166996
-0.5729801654815674 0.4246435761451721 0.6790017485618591 0.7316237092018127 0.22651229798793793 -1.0102667808532715  738318.7137168036
-0.5744927525520325 0.42486175894737244 0.6781628131866455 0.7306956052780151 0.247702956199646 -0.9789316654205322  738318.7137168961
-0.5760765075683594 0.42489567399024963 0.6796495318412781 0.7393502593040466 0.27516278624534607 -0.9677181243896484  738318.7137172434
-0.5775752663612366 0.4248056709766388 0.6789544820785522 0.738454282283783 0.3478495478630066 -0.9508557915687561  738318.7137173241
-0.5791546702384949 0.4248121380805969 0.6782664656639099 0.762688159942627 0.3532136380672455 -0.931269645690918  738318.7137175202
-0.5808289647102356 0.42550721764564514 0.6775926351547241 0.7418180704116821 0.32787570357322693 -0.9072335958480835  738318.7137177511
-0.577060341835022 0.42644843459129333 0.6778873205184937 0.7498873472213745 0.31591641902923584 -0.9400408864021301  738318.7137178833
-0.5790495276451111 0.42605310678482056 0.6772961020469666 0.7672790288925171 0.2734306752681732 -0.9156506061553955  738318.7137180908
-0.5820291638374329 0.4262073338031769 0.6761977672576904 0.8275077939033508 0.12047097831964493 -0.8798714876174927  738318.7137182337
-0.5834448337554932 0.4264812767505646 0.675699770450592 0.8718929290771484 0.07428566366434097 -0.8571608662605286  738318.7137183953
-0.5851501226425171 0.4262348711490631 0.6752883195877075 0.8984577655792236 0.022802898660302162 -0.838316023349762  738318.7137186609
-0.5868588089942932 0.426157683134079 0.6747246980667114 0.9181575179100037 -0.014898142777383327 -0.8296972513198853  738318.713718765
-0.5865123271942139 0.42596396803855896 0.6747276186943054 0.9181575179100037 -0.014898142777383327 -0.8296972513198853  738318.7137189958
-0.5896071195602417 0.4258767366409302 0.6737246513366699 0.9147066473960876 -0.008333384990692139 -0.8022024631500244  738318.7137190998
-0.5896140336990356 0.42586755752563477 0.6756851673126221 0.9147066473960876 -0.008333384990692139 -0.8022024631500244  738318.7137191922
-0.5874115228652954 0.42674940824508667 0.6751949191093445 0.8635485172271729 0.06218801438808441 -0.7870667576789856  738318.7137193419
-0.5867063403129578 0.4265988767147064 0.6752023696899414 0.8652457594871521 0.053526896983385086 -0.7870759963989258  738318.7137195222
-0.589601457118988 0.42629876732826233 0.6742902398109436 0.7918803691864014 0.04492886736989021 -0.7793776392936707  738318.7137199147
-0.5893622636795044 0.4261784255504608 0.6734338402748108 0.7918803691864014 0.04492886736989021 -0.7793776392936707  738318.71372003
-0.5921428203582764 0.4260835349559784 0.6724932193756104 0.7074704170227051 0.010273702442646027 -0.7736387848854065  738318.7137200763
-0.5950371026992798 0.42543715238571167 0.6713393926620483 0.6275227665901184 0.014508583582937717 -0.7824327349662781  738318.7137201455
-0.5963629484176636 0.42541009187698364 0.6707114577293396 0.6327162384986877 -0.00480245053768158 -0.7865170240402222  738318.713720192
-0.5977565050125122 0.425150603055954 0.6689674258232117 0.5957964062690735 0.031430408358573914 -0.7881137728691101  738318.7137204019
