% x y z r p yw  738318.7160129617
-0.05557765066623688 -0.09539613127708435 0.5629629492759705 -1.3666967153549194 -0.18758843839168549 -1.2769677639007568  738318.7161970761
-0.05511472374200821 -0.09209302067756653 0.5627394914627075 -1.3281110525131226 -0.1548566073179245 -1.2871397733688354  738318.7161971338
-0.054474081844091415 -0.08887733519077301 0.5625178217887878 -1.2796999216079712 -0.09056085348129272 -1.3000144958496094  738318.7161972028
-0.05392837151885033 -0.08568219095468521 0.5622660517692566 -1.1983866691589355 -0.036574121564626694 -1.3118048906326294  738318.7161973409
-0.05337939038872719 -0.08212275803089142 0.5619226694107056 -1.1310397386550903 0.029987987130880356 -1.3182580471038818  738318.7161974219
-0.05303173139691353 -0.07836587727069855 0.5615490674972534 -1.126599907875061 0.0996231809258461 -1.321092128753662  738318.716197537
-0.05254095792770386 -0.07497749477624893 0.5611817836761475 -1.1390728950500488 0.15015974640846252 -1.3314189910888672  738318.7161976871
-0.053312599658966064 -0.08127451688051224 0.5613895058631897 -1.0754224061965942 0.19567184150218964 -1.3233517408370972  738318.716197895
-0.05236927792429924 -0.07413135468959808 0.559403121471405 -1.0194647312164307 0.2528441846370697 -1.34394109249115  738318.7161981373
-0.05168835446238518 -0.07184430956840515 0.558984637260437 -0.9772170782089233 0.22896809875965118 -1.3552417755126953  738318.7161981722
-0.05123279616236687 -0.06853275746107101 0.558529794216156 -0.9478952288627625 0.137090265750885 -1.3701452016830444  738318.7161984835
-0.05064070597290993 -0.06471801549196243 0.558041512966156 -0.9235643744468689 0.006715432275086641 -1.3979660272598267  738318.7161985066
-0.050145894289016724 -0.061214447021484375 0.5571262836456299 -0.8850854635238647 -0.07063474506139755 -1.4318304061889648  738318.7161986106
-0.05023431032896042 -0.05799255520105362 0.5566355586051941 -0.8554367423057556 -0.16591745615005493 -1.4583505392074585  738318.7161988072
-0.04967494681477547 -0.05455079302191734 0.5561389327049255 -0.8203871250152588 -0.28595274686813354 -1.485856533050537  738318.7161990377
-0.05014556273818016 -0.060787077993154526 0.5563634634017944 -0.8682860136032104 -0.37090709805488586 -1.4410555362701416  738318.7161990723
-0.04915352910757065 -0.05433490499854088 0.5546482801437378 -0.8068006038665771 -0.3803967237472534 -1.5107301473617554  738318.7161992916
-0.04872981831431389 -0.050981856882572174 0.5541815161705017 -0.7684400677680969 -0.36188051104545593 -1.5466591119766235  738318.7161994302
-0.04821071773767471 -0.04740371182560921 0.5537108778953552 -0.7319296598434448 -0.3085119128227234 -1.586565613746643  738318.7161995687
-0.04725101962685585 -0.04064278304576874 0.553851306438446 -0.715840220451355 -0.17422303557395935 -1.6634677648544312  738318.71619965
-0.046417802572250366 -0.03376145660877228 0.5531192421913147 -0.6673007011413574 -0.0797925665974617 -1.7298626899719238  738318.7161999735
-0.0454690121114254 -0.027202630415558815 0.5561473369598389 -0.6243614554405212 0.06454993784427643 -1.8026344776153564  738318.7162001124
-0.045196641236543655 -0.03473568707704544 0.5564422011375427 -0.6268600225448608 -0.05783683806657791 -1.8113682270050049  738318.7162004012
-0.044679976999759674 -0.03154461085796356 0.5563035011291504 -0.6008113622665405 -0.07319752871990204 -1.849239706993103  738318.7162006667
-0.04421943798661232 -0.0279262475669384 0.5561546683311462 -0.5644779205322266 -0.08681388199329376 -1.8928043842315674  738318.7162008565
-0.04368508607149124 -0.02453751303255558 0.5563818216323853 -0.5391129851341248 -0.04351566731929779 -1.9381166696548462  738318.7162011336
-0.04299680143594742 -0.02139800600707531 0.5562965273857117 -0.4955337643623352 -0.05398549139499664 -1.9832483530044556  738318.7162013412
-0.042604077607393265 -0.018312258645892143 0.5562419295310974 -0.4668944180011749 -0.0506032295525074 -2.0227534770965576  738318.7162014452
-0.04212231934070587 -0.014996259473264217 0.5561785101890564 -0.44940507411956787 -0.04003406688570976 -2.0704939365386963  738318.7162016418
-0.04181285575032234 -0.0119246207177639 0.5561157464981079 -0.43233948945999146 -0.016628796234726906 -2.1132614612579346  738318.7162018607
-0.04080374911427498 -0.008596585132181644 0.5567837953567505 -0.4256307780742645 0.01609407737851143 -2.1506011486053467  738318.7162019815
-0.04057079926133156 -0.005150687415152788 0.5567623972892761 -0.4325926899909973 0.029744848608970642 -2.1867311000823975  738318.7162021773
-0.04088816046714783 -0.014605406671762466 0.5572932958602905 -0.395370215177536 -1.3270849194668699e-05 -2.298135995864868  738318.7162023043
-0.040385652333498 -0.01117995847016573 0.5572941899299622 -0.36559247970581055 0.013488683849573135 -2.3323755264282227  738318.7162024662
-0.0393223911523819 -0.004758007824420929 0.5567456483840942 -0.28429490327835083 0.06092187017202377 -2.3617868423461914  738318.7162027434
-0.03870341554284096 -0.0037173605524003506 0.5568053722381592 -0.22582770884037018 0.05727245286107063 -2.374243974685669  738318.7162031125
-0.03817008063197136 -0.0005684120114892721 0.5568479895591736 -0.17757108807563782 0.02051994577050209 -2.3941781520843506  738318.7162031354
-0.03779066354036331 0.002524383133277297 0.5581029057502747 -0.1828845888376236 0.023027006536722183 -2.4060516357421875  738318.7162032281
-0.036942169070243835 0.008968226611614227 0.5585436224937439 -0.22531045973300934 0.10798466950654984 -2.431800127029419  738318.7162032974
-0.037851881235837936 0.001006847363896668 0.5592628717422485 -0.2852938175201416 0.17594513297080994 -2.4064931869506836  738318.7162036324
-0.03586271405220032 0.011552564799785614 0.560263454914093 -0.605564534664154 0.3069867491722107 -2.4785313606262207  738318.7162037594
-0.03539688140153885 0.014526939950883389 0.5604323744773865 -0.6990879774093628 0.3575579822063446 -2.4924397468566895  738318.7162038167
-0.03493784740567207 0.017487680539488792 0.5588213801383972 -0.7513713240623474 0.3324553966522217 -2.5145111083984375  738318.7162039437
-0.033624421805143356 0.01914369687438011 0.5588477253913879 -0.8053516149520874 0.21892595291137695 -2.518494129180908  738318.716204395
-0.03329392522573471 0.02205369621515274 0.5588228702545166 -0.8763608336448669 0.1003573089838028 -2.538533926010132  738318.716204568
-0.032385580241680145 0.02806795760989189 0.5587448477745056 -1.0083956718444824 0.08864899724721909 -2.5620791912078857  738318.7162047297
-0.03224538639187813 0.020029010251164436 0.5552735924720764 -1.0508726835250854 -0.05947362259030342 -2.5575368404388428  738318.7162050648
-0.031027773395180702 0.021858885884284973 0.5550801157951355 -1.0583523511886597 -0.16361474990844727 -2.563627004623413  738318.71620533
-0.03056824766099453 0.024607855826616287 0.5548595190048218 -1.081026315689087 -0.24466250836849213 -2.574225902557373  738318.7162053765
-0.029584411531686783 0.029909662902355194 0.5530045032501221 -1.1976845264434814 -0.1628822684288025 -2.5731570720672607  738318.7162055031
-0.02912006340920925 0.033369068056344986 0.5525742769241333 -1.2886368036270142 -0.07532966881990433 -2.5806355476379395  738318.716205642
-0.028492670506238937 0.036275338381528854 0.5520675182342529 -1.3680353164672852 -0.018680429086089134 -2.587564468383789  738318.7162058036
-0.028023535385727882 0.0392453558743 0.5515739321708679 -1.4347480535507202 0.018269548192620277 -2.588136911392212  738318.716205919
-0.029249049723148346 0.034402523189783096 0.5509415864944458 -1.493156909942627 0.22224342823028564 -2.446505069732666  738318.7162061149
-0.02874348871409893 0.037066154181957245 0.5504807233810425 -1.5756173133850098 0.26777586340904236 -2.4353954792022705  738318.716206196
-0.0282119233161211 0.0396927185356617 0.5500296950340271 -1.6171108484268188 0.26811346411705017 -2.436631441116333  738318.7162063572
-0.027307741343975067 0.04527038708329201 0.5484471917152405 -1.6709901094436646 0.21054166555404663 -2.4134693145751953  738318.7162066113
-0.026003694161772728 0.050643548369407654 0.5475374460220337 -1.7404371500015259 -0.006898508872836828 -2.39475417137146  738318.7162068075
-0.025535596534609795 0.053565870970487595 0.547029972076416 -1.7795054912567139 -0.0745406225323677 -2.380098342895508  738318.7162069806
-0.025277964770793915 0.05624935030937195 0.546183168888092 -1.8298063278198242 -0.09012717753648758 -2.364975929260254  738318.7162070973
-0.024820566177368164 0.0591159462928772 0.5456110239028931 -1.8683236837387085 -0.11396520584821701 -2.348761796951294  738318.7162071893
-0.02447436936199665 0.062250006943941116 0.5450552701950073 -1.8979382514953613 -0.13134293258190155 -2.330833673477173  738318.7162073166
-0.024860313162207603 0.054166030138731 0.5451793670654297 -1.9488767385482788 -0.23251062631607056 -2.314483642578125  738318.7162075355
-0.023844318464398384 0.059837136417627335 0.5437690019607544 -1.9572049379348755 -0.24144797027111053 -2.272545337677002  738318.7162076975
-0.022953912615776062 0.06554371863603592 0.5427700877189636 -1.8642432689666748 -0.21837007999420166 -2.2105765342712402  738318.7162078472
-0.022467317059636116 0.06842946261167526 0.5423217415809631 -1.7779953479766846 -0.21600127220153809 -2.1699025630950928  738318.7162079858
-0.021993452683091164 0.0716569647192955 0.543839156627655 -1.7170931100845337 -0.22757358849048615 -2.12058424949646  738318.7162081127
-0.021579984575510025 0.0742168053984642 0.5435729622840881 -1.6736794710159302 -0.19387845695018768 -2.0674824714660645  738318.7162083089
-0.021251358091831207 0.07825370877981186 0.5433064103126526 -1.6448805332183838 -0.16602036356925964 -2.0182788372039795  738318.716208482
-0.02069016359746456 0.08103255927562714 0.5431485176086426 -1.5985127687454224 -0.1325737088918686 -1.9630131721496582  738318.716208563
-0.021214984357357025 0.0738973468542099 0.5438098311424255 -1.5964478254318237 -0.10481670498847961 -1.919134497642517  738318.7162086094
-0.020950602367520332 0.07609487324953079 0.5438340902328491 -1.519389033317566 -0.09561751037836075 -1.873590111732483  738318.7162089322
-0.020298240706324577 0.0789027288556099 0.5438559055328369 -1.4958699941635132 -0.08381890505552292 -1.818772315979004  738318.7162089554
-0.019927583634853363 0.08214068412780762 0.5439156293869019 -1.4818779230117798 -0.08920582383871078 -1.7770825624465942  738318.7162090712
-0.01937343366444111 0.08497808873653412 0.5440276861190796 -1.4505274295806885 -0.08309880644083023 -1.7193869352340698  738318.7162092093
-0.01904364489018917 0.08849003911018372 0.5448349714279175 -1.431289792060852 -0.045990098267793655 -1.664172649383545  738318.7162093942
-0.018070215359330177 0.09495288133621216 0.5451950430870056 -1.2988640069961548 -0.061078641563653946 -1.5549575090408325  738318.7162094864
-0.01767328567802906 0.09672310203313828 0.5454292893409729 -1.1694774627685547 -0.047515761107206345 -1.4965544939041138  738318.7162095902
-0.017691653221845627 0.09037210047245026 0.5458086133003235 -1.163169503211975 -0.03091173991560936 -1.4377962350845337  738318.7162097634
-0.016247808933258057 0.09927981346845627 0.5465472936630249 -0.961783766746521 -0.058903906494379044 -1.2810488939285278  738318.716210113
-0.015253862366080284 0.10566826164722443 0.5479952096939087 -0.9075790643692017 -0.01216502208262682 -1.194393515586853  738318.7162101938
-0.014691106043756008 0.10763330012559891 0.5483928918838501 -0.8586553335189819 -0.022268349304795265 -1.149585485458374  738318.7162104016
-0.013666944578289986 0.11344058811664581 0.5491328239440918 -0.8367209434509277 0.007475593127310276 -1.0719658136367798  738318.7162105055
-0.013095900416374207 0.11665715277194977 0.5516475439071655 -0.7997564673423767 -0.0023569492623209953 -1.0171947479248047  738318.7162105405
-0.01301976852118969 0.11360134184360504 0.5531798601150513 -0.7727973461151123 0.05919349938631058 -0.9263595342636108  738318.7162108864
-0.012012029066681862 0.12025748938322067 0.5545706152915955 -0.6771011352539062 -0.06182407587766647 -0.832382321357727  738318.7162111085
-0.011774477548897266 0.12204227596521378 0.5551189184188843 -0.6581520438194275 -0.044425636529922485 -0.803968608379364  738318.7162113166
-0.010813514702022076 0.12783801555633545 0.55611652135849 -0.6442911028862 -0.03544043377041817 -0.7386106848716736  738318.7162114318
-0.010114152915775776 0.1339540034532547 0.5552185773849487 -0.6742492318153381 -0.0021259328350424767 -0.7024368643760681  738318.7162114665
-0.00947789940983057 0.1367712914943695 0.5555596947669983 -0.6711788177490234 0.007139335852116346 -0.6690433025360107  738318.7162116857
-0.00881440844386816 0.13953319191932678 0.5558965802192688 -0.641373872756958 0.0059571038000285625 -0.6524084210395813  738318.7162118244
-0.009151837788522243 0.13221129775047302 0.5568195581436157 -0.6356014013290405 0.01926797814667225 -0.6309065818786621  738318.7162119631
-0.008265642449259758 0.1380472481250763 0.5550376772880554 -0.5506266951560974 -0.037012819200754166 -0.5885008573532104  738318.7162123093
-0.007906734943389893 0.140755757689476 0.555243194103241 -0.5298703908920288 -0.07679593563079834 -0.5716802477836609  738318.7162123921
-0.007476299535483122 0.1435835212469101 0.5553998947143555 -0.531623125076294 -0.08476027846336365 -0.5574151873588562  738318.7162125999
-0.006987915839999914 0.1463211625814438 0.5572174191474915 -0.5144968628883362 -0.0825619027018547 -0.529751181602478  738318.7162127269
-0.0066109453327953815 0.14940927922725677 0.5574866533279419 -0.5271733999252319 -0.0601515993475914 -0.513675332069397  738318.7162129115
-0.006183134391903877 0.1518845558166504 0.5577775835990906 -0.5472411513328552 -0.06299036741256714 -0.4999598264694214  738318.716213039
-0.005791270174086094 0.14751330018043518 0.5589999556541443 -0.6420918107032776 -0.052750952541828156 -0.45930811762809753  738318.7162132352
-0.004572294186800718 0.15605998039245605 0.5612229108810425 -0.7488421201705933 0.07403929531574249 -0.4105886220932007  738318.7162136276
-0.004145524464547634 0.15903465449810028 0.5617099404335022 -0.7723791599273682 0.04374990612268448 -0.4002052843570709  738318.7162137659
-0.0035475469194352627 0.16182923316955566 0.5617371201515198 -0.8004398941993713 0.03833847865462303 -0.3801301419734955  738318.7162138696
-0.003116019070148468 0.16471290588378906 0.5622428059577942 -0.8054158687591553 0.03416191786527634 -0.36221930384635925  738318.7162139392
-0.0031476120930165052 0.16668744385242462 0.5628081560134888 -0.7990850210189819 0.019336726516485214 -0.347131609916687  738318.7162140544
-0.0022302279248833656 0.1722431778907776 0.5639883875846863 -0.7392846345901489 -0.03786635771393776 -0.29225102066993713  738318.7162141005
-0.0016069423872977495 0.17511378228664398 0.5625961422920227 -0.7349258661270142 -0.031863920390605927 -0.2674674093723297  738318.716214147
-0.0009473091922700405 0.17035719752311707 0.5640780925750732 -0.7508777379989624 -0.010721758008003235 -0.2225327044725418  738318.716214366
-0.0006133522838354111 0.173566997051239 0.5646029710769653 -0.7735748291015625 0.05135428160429001 -0.1821524202823639  738318.7162146199
0.000983207835815847 0.18027181923389435 0.5640479326248169 -0.7610774040222168 0.21963396668434143 -0.09526494145393372  738318.7162147932
0.00112066138535738 0.18281380832195282 0.5645203590393066 -0.74752277135849 0.23634126782417297 -0.07618576288223267  738318.7162149086
0.0014980772975832224 0.1854354590177536 0.5650168657302856 -0.7118006944656372 0.2242128700017929 -0.047481633722782135  738318.7162150355
0.002052385825663805 0.18795238435268402 0.5654993653297424 -0.6797274351119995 0.26369452476501465 -0.010511699132621288  738318.7162150821
0.002276776358485222 0.19159680604934692 0.5660026669502258 -0.6465379595756531 0.2817680835723877 0.023692632094025612  738318.7162151394
0.0026945951394736767 0.18404166400432587 0.5670371055603027 -0.6045354008674622 0.2793739140033722 0.04870780557394028  738318.7162153126
0.0030888444744050503 0.18673424422740936 0.5676367878913879 -0.586686372756958 0.3012930154800415 0.07917406409978867  738318.7162154284
0.003399783279746771 0.18886853754520416 0.566196084022522 -0.5950799584388733 0.31061410903930664 0.11007077991962433  738318.7162156935
0.003780908649787307 0.19156067073345184 0.566705584526062 -0.6096712946891785 0.3082078993320465 0.14183089137077332  738318.7162158551
0.00426535215228796 0.19635775685310364 0.5678009390830994 -0.7045953273773193 0.37657999992370605 0.20904937386512756  738318.7162160514
0.004812401719391346 0.19889149069786072 0.5674502849578857 -0.7650068998336792 0.38041579723358154 0.24028754234313965  738318.7162161901
0.0051668849773705006 0.20160263776779175 0.5679818391799927 -0.8531006574630737 0.3988170623779297 0.2738812267780304  738318.7162164323
0.005500755738466978 0.2051793783903122 0.5691773295402527 -0.8835419416427612 0.3950320780277252 0.3447384834289551  738318.7162165362
0.00569709949195385 0.19832012057304382 0.5703060030937195 -0.9100846648216248 0.43088001012802124 0.4008362591266632  738318.7162167906
0.005897877737879753 0.2038801610469818 0.5700943470001221 -0.8711483478546143 0.387002557516098 0.4703017771244049  738318.7162168482
0.006644290406256914 0.20905208587646484 0.5712176561355591 -0.8800963759422302 0.4374551475048065 0.526149332523346  738318.716216894
0.00696782348677516 0.21156221628189087 0.5699182748794556 -0.8694486021995544 0.46293994784355164 0.5430669784545898  738318.7162169297
0.007060912903398275 0.21402129530906677 0.5704437494277954 -0.8970279097557068 0.4938865303993225 0.5682592391967773  738318.7162169986
0.007305240258574486 0.2166726291179657 0.5709965229034424 -0.9074053168296814 0.5187031626701355 0.5842507481575012  738318.716217241
0.007540407590568066 0.21933987736701965 0.5715845227241516 -0.9200344085693359 0.5574108362197876 0.6061016917228699  738318.7162173911
0.008302997797727585 0.22088134288787842 0.57174152135849 -0.927434504032135 0.5230778455734253 0.621232271194458  738318.7162177028
0.008421878330409527 0.22329413890838623 0.5723968148231506 -0.932345986366272 0.5065014958381653 0.6399107575416565  738318.7162178183
0.00941751804202795 0.219525545835495 0.5753322243690491 -0.8794082999229431 0.4467971920967102 0.7173578143119812  738318.716218049
0.009485961869359016 0.22232601046562195 0.5780090689659119 -0.8855949640274048 0.45106396079063416 0.7341617941856384  738318.7162180606
0.009899537079036236 0.22744828462600708 0.5801346898078918 -0.9242720603942871 0.4783574342727661 0.7554823756217957  738318.7162181301
0.010186238214373589 0.23269356787204742 0.5806450843811035 -0.9567267298698425 0.5171499252319336 0.760955810546875  738318.7162183273
0.010225816629827023 0.23257914185523987 0.5867878794670105 -0.915252149105072 0.5939834117889404 0.7485619187355042  738318.716218616
0.010442853905260563 0.2346985936164856 0.5880990028381348 -0.8777338266372681 0.561578094959259 0.7351920008659363  738318.716218662
0.01050050463527441 0.2368636280298233 0.5894666910171509 -0.8257278203964233 0.5722604393959045 0.7224666476249695  738318.716218824
0.010545849800109863 0.2422092705965042 0.5929348468780518 -0.7763803601264954 0.5138500332832336 0.6711646914482117  738318.7162188584
0.01039829757064581 0.24443082511425018 0.594406008720398 -0.7729490399360657 0.49355819821357727 0.6380103230476379  738318.7162189045
0.010725880973041058 0.2520153224468231 0.5989627242088318 -0.8359591364860535 0.4220564365386963 0.5598283410072327  738318.7162192046
0.010176930576562881 0.24402058124542236 0.6013256907463074 -0.8857811689376831 0.3949446380138397 0.5584633946418762  738318.7162193924
0.01017980556935072 0.24865055084228516 0.6045816540718079 -0.9469029903411865 0.3505072295665741 0.5047975778579712  738318.7162195883
0.010307962074875832 0.25093555450439453 0.6062501668930054 -0.9308145046234131 0.314709335565567 0.47355619072914124  738318.7162197846
0.010307327844202518 0.2533358037471771 0.607427179813385 -0.9409957528114319 0.3053484857082367 0.43817999958992004  738318.7162199577
0.009989232756197453 0.2607147693634033 0.6125738620758057 -1.0555676221847534 0.2974128723144531 0.33920302987098694  738318.7162201426
0.00982351042330265 0.2544146478176117 0.616119921207428 -1.1224360466003418 0.3148251175880432 0.29548966884613037  738318.7162203616
0.009769911877810955 0.25682923197746277 0.6179375648498535 -1.1399781703948975 0.3065709173679352 0.2585825026035309  738318.7162206849
0.010540380142629147 0.2587582468986511 0.6216956973075867 -1.0828677415847778 0.19796016812324524 0.19384895265102386  738318.7162208006
0.01050593238323927 0.26054078340530396 0.623624861240387 -1.086720585823059 0.20254239439964294 0.15245240926742554  738318.7162208466
0.010470458306372166 0.2628895044326782 0.6244675517082214 -1.0963294506072998 0.13980287313461304 0.11601316928863525  738318.7162209046
0.010684468783438206 0.265292763710022 0.6265265941619873 -1.1110875606536865 0.03257385641336441 0.06404874473810196  738318.7162211697
0.010583771392703056 0.2680051326751709 0.6284114718437195 -1.1717609167099 -0.009019717574119568 0.008925379253923893  738318.7162212736
0.010030106641352177 0.2673751413822174 0.6352178454399109 -1.2879027128219604 -0.05573906749486923 -0.13475295901298523  738318.7162214352
0.009754571132361889 0.27205532789230347 0.6390321850776672 -1.258885383605957 -0.09488401561975479 -0.20697139203548431  738318.7162216891
0.00960887037217617 0.2764797508716583 0.6430022716522217 -1.2281107902526855 -0.03590983897447586 -0.28049132227897644  738318.716221701
0.009568753652274609 0.2788946032524109 0.6449838280677795 -1.190081238746643 -0.027509033679962158 -0.30726858973503113  738318.7162217584
0.00920573528856039 0.28341251611709595 0.6477437019348145 -1.1596789360046387 -0.013678640127182007 -0.3790968358516693  738318.7162220009
0.009115832857787609 0.2768804132938385 0.6501109600067139 -1.1910200119018555 -0.048215169459581375 -0.41055840253829956  738318.7162222086
0.009207860566675663 0.28142818808555603 0.6539357304573059 -1.167820692062378 0.009312324225902557 -0.4674462080001831  738318.7162224394
0.009401201270520687 0.28577855229377747 0.6577109694480896 -1.0661121606826782 -0.07124072313308716 -0.5371605753898621  738318.7162225549
0.009170887991786003 0.28835588693618774 0.6595312356948853 -0.999927282333374 -0.02609889954328537 -0.5525045990943909  738318.7162226819
0.009070702828466892 0.2909800410270691 0.6612923741340637 -0.9536128044128418 0.05268901586532593 -0.574249804019928  738318.7162228336
0.009054691530764103 0.29332056641578674 0.6630315780639648 -0.9070695638656616 0.06046793609857559 -0.6059345006942749  738318.7162228964
0.009030278772115707 0.2957420349121094 0.6623126268386841 -0.8540664315223694 0.08123978227376938 -0.6320742964744568  738318.7162231157
0.009000386111438274 0.29821303486824036 0.6639351844787598 -0.831955075263977 0.17039239406585693 -0.6519087553024292  738318.7162232774
0.008870025165379047 0.2930390536785126 0.6678411364555359 -0.8152289390563965 0.21909354627132416 -0.7056615948677063  738318.7162234966
0.008761326782405376 0.2999128997325897 0.6735092997550964 -0.6493694186210632 0.26520630717277527 -0.77521151304245  738318.7162237044
0.00872393511235714 0.30229130387306213 0.6752204895019531 -0.5933560132980347 0.22915096580982208 -0.7957451939582825  738318.7162237483
0.008947597816586494 0.3047000765800476 0.6769518852233887 -0.5447553396224976 0.16898204386234283 -0.8140579462051392  738318.716224002
0.008914685808122158 0.3070718050003052 0.6766788959503174 -0.4911855459213257 0.16054858267307281 -0.8394466638565063  738318.7162241058
0.008638240396976471 0.3117636442184448 0.6798512935638428 -0.49183836579322815 0.1377033293247223 -0.888769805431366  738318.7162241867
0.008587918244302273 0.3141833543777466 0.6814248561859131 -0.4947591722011566 0.09150254726409912 -0.9103158116340637  738318.7162244176
0.00846204161643982 0.306233286857605 0.6860098242759705 -0.48817312717437744 0.03887436166405678 -0.9408449530601501  738318.7162246141
0.008422191254794598 0.30850058794021606 0.6878037452697754 -0.49123239517211914 0.09412972629070282 -0.9709993004798889  738318.7162246603
0.008321558125317097 0.3129807710647583 0.6914724111557007 -0.38661178946495056 0.11923553794622421 -1.0084441900253296  738318.7162248566
0.008278127759695053 0.31525492668151855 0.6920608282089233 -0.3357993960380554 0.11721997708082199 -1.0275386571884155  738318.7162249142
0.006705544888973236 0.3173401951789856 0.6958191990852356 -0.21090076863765717 0.26033198833465576 -1.0430212020874023  738318.7162249939
0.006523231044411659 0.31946873664855957 0.6976942420005798 -0.1326928287744522 0.3579956591129303 -1.0447524785995483  738318.7162251555
0.006451131775975227 0.3219917118549347 0.6996108293533325 -0.06098676845431328 0.4235621392726898 -1.0471971035003662  738318.7162253286
0.006334185600280762 0.32421839237213135 0.7013066411018372 -0.016266606748104095 0.4342018961906433 -1.0455869436264038  738318.7162254791
0.006779154762625694 0.3175014853477478 0.7039275765419006 -0.07614456862211227 0.38537564873695374 -1.0698202848434448  738318.7162255018
0.006675853859633207 0.31960785388946533 0.7059495449066162 -0.07930295914411545 0.45489734411239624 -1.0744314193725586  738318.716225698
0.006452424917370081 0.32091227173805237 0.7080241441726685 -0.09175272285938263 0.5572075843811035 -1.067646861076355  738318.7162259173
0.006182648707181215 0.3253801167011261 0.7134084701538086 0.004692294169217348 0.4977129101753235 -1.075144648551941  738318.7162260559
0.006039227358996868 0.32747316360473633 0.7156233787536621 0.03847712650895119 0.45514020323753357 -1.0777382850646973  738318.7162262637
0.005412634462118149 0.32928794622421265 0.7178492546081543 0.056336283683776855 0.5023037195205688 -1.074945092201233  738318.7162263681
0.005245128646492958 0.33133625984191895 0.7165398597717285 0.06660711020231247 0.5587663054466248 -1.0711637735366821  738318.7162264372
0.005059931427240372 0.3334166705608368 0.7186239361763 0.12219329178333282 0.569264829158783 -1.0845834016799927  738318.716226599
0.005023910664021969 0.3263147175312042 0.7234566807746887 0.24168767035007477 0.5238795280456543 -1.1050490140914917  738318.7162268878
0.004648263566195965 0.33016669750213623 0.7286800146102905 0.3001258671283722 0.6395168900489807 -1.1056427955627441  738318.7162272914
0.004459977615624666 0.33157622814178467 0.7309098243713379 0.37338411808013916 0.6104006767272949 -1.1056238412857056  738318.7162274903
0.004275818821042776 0.33354946970939636 0.7331557869911194 0.4051225483417511 0.583519697189331 -1.1006871461868286  738318.7162275362
0.0033066137693822384 0.33895599842071533 0.7399677634239197 0.4078635573387146 0.6232849955558777 -1.105773687362671  738318.7162276517
0.003035513451322913 0.34077101945877075 0.7421960830688477 0.36501437425613403 0.5533148646354675 -1.1033220291137695  738318.7162276865
0.0028587286360561848 0.3342856764793396 0.745017945766449 0.2881937325000763 0.5388015508651733 -1.125281572341919  738318.7162279056
0.0022156655322760344 0.3374652564525604 0.7489818334579468 0.22991415858268738 0.5410414338111877 -1.1247410774230957  738318.7162281364
0.0016459967009723186 0.34083878993988037 0.7534294724464417 0.2516883313655853 0.4340207576751709 -1.1262295246124268  738318.7162284254
0.0010926737450063229 0.3426809310913086 0.755677342414856 0.24454939365386963 0.46834999322891235 -1.1241950988769531  738318.7162285005
0.0007438845350407064 0.34460583329200745 0.7576879858970642 0.23524640500545502 0.4903983771800995 -1.118769884109497  738318.7162286275
0.000393520575016737 0.34626540541648865 0.7599959373474121 0.2445984035730362 0.453052282333374 -1.1245896816253662  738318.7162288002
-0.0008901532273739576 0.3505200445652008 0.766990065574646 0.29670074582099915 0.4257056713104248 -1.1120861768722534  738318.7162289273
-0.0015688221901655197 0.342722624540329 0.7722432017326355 0.31171631813049316 0.4729800224304199 -1.0920299291610718  738318.7162291354
-0.001990886405110359 0.34418433904647827 0.774734377861023 0.3679904639720917 0.3980218172073364 -1.0789376497268677  738318.7162292274
-0.0021092051174491644 0.34540942311286926 0.7772527933120728 0.4065018594264984 0.3157099783420563 -1.0647822618484497  738318.7162294352
-0.0030764841940253973 0.3481810688972473 0.7799623012542725 0.39293035864830017 0.3144385814666748 -1.039161205291748  738318.716229493
-0.0035154358483850956 0.3496052324771881 0.7823552489280701 0.3860943019390106 0.2984171509742737 -1.0280475616455078  738318.7162297587
-0.004131069406867027 0.35205575823783875 0.7871191501617432 0.3557555377483368 0.20068201422691345 -1.0144538879394531  738318.7162299434
-0.004572536330670118 0.35344788432121277 0.7888757586479187 0.32002586126327515 0.18758544325828552 -0.9980504512786865  738318.7162302205
-0.005626068916171789 0.3560907542705536 0.7934534549713135 0.36074137687683105 0.29020556807518005 -0.9585164785385132  738318.7162304282
-0.006650188472121954 0.3487829267978668 0.7985326647758484 0.47890737652778625 0.23404642939567566 -0.9423818588256836  738318.7162306823
-0.006969820242375135 0.3482319414615631 0.7998291254043579 0.5940320491790771 0.20365434885025024 -0.9278656840324402  738318.7162308672
-0.007419978268444538 0.3492894470691681 0.8020612001419067 0.6683192253112793 0.2574085593223572 -0.9218129515647888  738318.7162309939
-0.007913067005574703 0.3504132330417633 0.8042778372764587 0.721849262714386 0.22908282279968262 -0.9055097103118896  738318.716231075
-0.008410449139773846 0.35152536630630493 0.806479811668396 0.7694546580314636 0.111855648458004 -0.8966655731201172  738318.7162312942
-0.008447865955531597 0.35262787342071533 0.8065217137336731 0.7938081622123718 0.05853748694062233 -0.895897388458252  738318.7162313632
-0.0092840027064085 0.3538679778575897 0.8087561726570129 0.7743604779243469 0.03963887691497803 -0.8719330430030823  738318.7162314212
-0.009629841893911362 0.34620317816734314 0.8112726807594299 0.7754812836647034 -0.009502102620899677 -0.8639863133430481  738318.7162316056
-0.010572375729680061 0.34781986474990845 0.8154651522636414 0.6603673696517944 -0.1732182800769806 -0.8419277667999268  738318.7162317904
-0.011070284992456436 0.34872281551361084 0.8174540400505066 0.5719860792160034 -0.21973168849945068 -0.837293803691864  738318.7162319752
-0.011560620740056038 0.34959638118743896 0.8194388151168823 0.5163178443908691 -0.24599647521972656 -0.8279842734336853  738318.7162321273
-0.012175616808235645 0.3505460023880005 0.8213926553726196 0.4472089409828186 -0.23173515498638153 -0.8242765069007874  738318.7162323234
-0.012662768363952637 0.35140523314476013 0.8233231902122498 0.424497127532959 -0.24894562363624573 -0.8139951229095459  738318.7162324386
-0.013152644969522953 0.3522563576698303 0.8282609581947327 0.42812755703926086 -0.25649476051330566 -0.8099517226219177  738318.7162325425
-0.013632186688482761 0.35310059785842896 0.8302983045578003 0.4371049404144287 -0.21925069391727448 -0.7885021567344666  738318.7162326117
-0.015413484536111355 0.35361313819885254 0.8322891592979431 0.47568389773368835 -0.11914197355508804 -0.7709015011787415  738318.7162328772
-0.015074127353727818 0.3461552560329437 0.8352876305580139 0.6589694023132324 -0.21319743990898132 -0.7215877175331116  738318.7162329118
-0.016016552224755287 0.34750133752822876 0.8390308022499084 0.832389235496521 -0.2048816680908203 -0.6997116208076477  738318.7162330507
-0.016940848901867867 0.34854888916015625 0.8426871299743652 0.9348145127296448 -0.2757168412208557 -0.6719297766685486  738318.7162331081
-0.01738908514380455 0.3491411805152893 0.8433637022972107 0.9072423577308655 -0.31290146708488464 -0.6587622165679932  738318.7162333274
-0.01783394068479538 0.34971654415130615 0.8451099991798401 0.8526475429534912 -0.35899537801742554 -0.6360448002815247  738318.7162334658
-0.01852155104279518 0.35045644640922546 0.8485047221183777 0.7221990823745728 -0.4462713301181793 -0.5958235859870911  738318.7162336506
-0.018208039924502373 0.3425009250640869 0.8510597348213196 0.6315544843673706 -0.46507728099823 -0.576373279094696  738318.7162339509
-0.018611369654536247 0.34286096692085266 0.8527643084526062 0.567287027835846 -0.5164834260940552 -0.5535646080970764  738318.7162342393
-0.019110210239887238 0.34337857365608215 0.8544443249702454 0.48307865858078003 -0.5083670616149902 -0.5297998189926147  738318.7162343718
-0.019493773579597473 0.34367161989212036 0.8561140894889832 0.42337629199028015 -0.47148340940475464 -0.5031089782714844  738318.716234457
-0.019974347203969955 0.34402498602867126 0.8578075170516968 0.39531582593917847 -0.40483376383781433 -0.4847474694252014  738318.716234572
-0.020710613578557968 0.34451860189437866 0.856947660446167 0.44818130135536194 -0.25562670826911926 -0.42132142186164856  738318.7162347105
-0.021085388958454132 0.344860702753067 0.8584393858909607 0.5171002745628357 -0.21341228485107422 -0.39293766021728516  738318.7162347917
-0.02144821360707283 0.3451654016971588 0.8599134683609009 0.617641806602478 -0.11626380681991577 -0.3565192222595215  738318.7162348231
-0.02209331840276718 0.34499871730804443 0.8581876754760742 0.7241224646568298 -0.04738872870802879 -0.32413700222969055  738318.7162349386
-0.02110334485769272 0.33687901496887207 0.8601115942001343 0.813862681388855 -0.11959099024534225 -0.2803051471710205  738318.716235216
-0.021743113175034523 0.3371141850948334 0.8627632260322571 0.9055539965629578 -0.1378122717142105 -0.23471559584140778  738318.7162353195
-0.022059965878725052 0.3372102677822113 0.8636144399642944 0.9000822901725769 -0.14000141620635986 -0.20162105560302734  738318.7162354233
-0.022374290972948074 0.3372899889945984 0.8649036288261414 0.8474264740943909 -0.16638188064098358 -0.1770201176404953  738318.7162355165
-0.022686028853058815 0.3373546898365021 0.8661966323852539 0.7871838212013245 -0.1667497456073761 -0.1550699919462204  738318.7162357242
-0.022994941100478172 0.33740535378456116 0.8674923181533813 0.7098948359489441 -0.18300257623195648 -0.14182095229625702  738318.7162358735
-0.02169523946940899 0.33759376406669617 0.8687804341316223 0.6429139971733093 -0.21098436415195465 -0.11226830631494522  738318.7162359889
-0.02195204608142376 0.3379766643047333 0.8753143548965454 0.5584341287612915 -0.18882596492767334 -0.09175639599561691  738318.7162361045
-0.022212378680706024 0.3379637897014618 0.876899242401123 0.510457456111908 -0.16330692172050476 -0.07194530218839645  738318.7162362429
-0.022454993799328804 0.3379845917224884 0.8784903287887573 0.4957008957862854 -0.10259413719177246 -0.04476357623934746  738318.7162363468
-0.023112483322620392 0.32902783155441284 0.8807125687599182 0.45818832516670227 0.05427506938576698 -0.03698304668068886  738318.7162365199
-0.024878695607185364 0.32694441080093384 0.8909005522727966 0.7007488012313843 0.43747806549072266 0.026592474430799484  738318.7162367442
-0.02515651099383831 0.32683035731315613 0.8893493413925171 0.763952374458313 0.4953064024448395 0.030641617253422737  738318.7162367792
-0.025811778381466866 0.32635942101478577 0.8928187489509583 0.8506376147270203 0.4849437177181244 0.05437246337532997  738318.7162370328
-0.0259888656437397 0.325764536857605 0.8945229649543762 0.8405969738960266 0.5009301900863647 0.061900146305561066  738318.7162371136
-0.02626478485763073 0.3170599639415741 0.8996568918228149 0.6818440556526184 0.4068467319011688 0.09456370025873184  738318.7162373676
-0.02685839869081974 0.3162103295326233 0.9030595421791077 0.5044134259223938 0.33570951223373413 0.08760768920183182  738318.7162378799
-0.027146629989147186 0.3158477544784546 0.9047237634658813 0.39730823040008545 0.3218396306037903 0.08995766937732697  738318.716237903
-0.02747119776904583 0.31559377908706665 0.9068392515182495 0.29322144389152527 0.3056023418903351 0.07804378867149353  738318.716238111
-0.027855416759848595 0.31474947929382324 0.9084963202476501 0.19444407522678375 0.33195677399635315 0.06221761554479599  738318.7162382496
-0.028224408626556396 0.313230961561203 0.9101438522338867 0.15811032056808472 0.3256397843360901 0.051940981298685074  738318.7162383996
-0.0289299376308918 0.3121951222419739 0.9134272933006287 0.12214725464582443 0.31023159623146057 0.0354565866291523  738318.7162384919
-0.029246170073747635 0.3113616406917572 0.9144555330276489 0.13319601118564606 0.3554942011833191 0.021747389808297157  738318.7162385613
-0.030753517523407936 0.3016619086265564 0.9164356589317322 0.4033905267715454 0.6252128481864929 -0.020901497453451157  738318.7162388037
-0.031190970912575722 0.30089306831359863 0.9179757833480835 0.46537908911705017 0.6544982194900513 -0.02303440496325493  738318.7162388496
-0.03197355940937996 0.29937729239463806 0.918366551399231 0.5426090955734253 0.6372055411338806 -0.05440273880958557  738318.7162389024
-0.0326416902244091 0.29865047335624695 0.9197095036506653 0.5018855333328247 0.678011953830719 -0.05224696546792984  738318.7162390294
-0.03359910845756531 0.29709628224372864 0.9222867488861084 0.4080306887626648 0.5899249911308289 -0.06703857332468033  738318.7162391215
-0.03424970805644989 0.2964925765991211 0.9229194521903992 0.3355977535247803 0.5625083446502686 -0.07026449590921402  738318.7162393066
-0.034875545650720596 0.29576224088668823 0.9241481423377991 0.23420941829681396 0.4739357531070709 -0.07245031744241714  738318.7162395141
-0.03528275713324547 0.29508692026138306 0.9253304600715637 0.08989064395427704 0.39500755071640015 -0.09273908287286758  738318.7162397221
-0.03590020909905434 0.29411324858665466 0.9264824390411377 -0.08744598180055618 0.3360886573791504 -0.10844976454973221  738318.7162397682
-0.036002401262521744 0.2841102182865143 0.9282756447792053 0.010169090703129768 0.3507554829120636 -0.11854603886604309  738318.7162399645
-0.037721116095781326 0.28055641055107117 0.9310234189033508 -0.13683730363845825 0.2699792683124542 -0.14628171920776367  738318.7162401606
-0.038335155695676804 0.2795020043849945 0.9320276379585266 -0.157815083861351 0.19899731874465942 -0.14792174100875854  738318.7162403682
-0.03957410529255867 0.2774103283882141 0.9384295344352722 -0.2745887339115143 0.12761914730072021 -0.15368595719337463  738318.7162404031
-0.04065806418657303 0.2775222659111023 0.9396025538444519 -0.34328803420066833 0.15203221142292023 -0.14973096549510956  738318.7162404724
-0.04129966348409653 0.276520311832428 0.9407960176467896 -0.4015820026397705 0.1719144731760025 -0.13923333585262299  738318.7162405879
-0.04111458361148834 0.26881876587867737 0.9425020813941956 -0.3311382830142975 0.2478979080915451 -0.1417919546365738  738318.7162406568
-0.04214414954185486 0.2663204073905945 0.9447970986366272 -0.46872246265411377 0.1826535016298294 -0.15099044144153595  738318.7162408071
-0.04272285848855972 0.2655940651893616 0.9460423588752747 -0.5442765355110168 0.16123898327350616 -0.14053168892860413  738318.716240853
-0.043392959982156754 0.264468789100647 0.9472801685333252 -0.579436182975769 0.1295064091682434 -0.14286157488822937  738318.7162409918
-0.04385887458920479 0.26276060938835144 0.946810781955719 -0.55210942029953 0.10276594758033752 -0.13625286519527435  738318.7162411878
-0.044591568410396576 0.2618362605571747 0.9479227662086487 -0.5880662798881531 0.10214318335056305 -0.12418993562459946  738318.7162413616
-0.045199789106845856 0.26067548990249634 0.9490059614181519 -0.591781735420227 0.023715944960713387 -0.1179686039686203  738318.7162414308
-0.04580508545041084 0.259478360414505 0.9500728845596313 -0.648138701915741 -0.05698252469301224 -0.12068843841552734  738318.7162416156
-0.04458075016736984 0.25293469429016113 0.9521953463554382 -0.6498751640319824 -0.11023051291704178 -0.140711709856987  738318.7162416737
-0.04527625814080238 0.25145024061203003 0.9533796310424805 -0.7501813173294067 -0.21238437294960022 -0.1524263471364975  738318.7162418349
-0.046499207615852356 0.24916960299015045 0.955488920211792 -0.8075112104415894 -0.3218773603439331 -0.16811466217041016  738318.7162419757
-0.04772787541151047 0.24685333669185638 0.9581418633460999 -0.8816000819206238 -0.35937005281448364 -0.16324324905872345  738318.7162421372
-0.047770075500011444 0.2469855695962906 0.9581421613693237 -0.8816000819206238 -0.35937005281448364 -0.16324324905872345  738318.7162422877
-0.04897709935903549 0.24473537504673004 0.9603676199913025 -0.9559728503227234 -0.37215456366539 -0.17310510575771332  738318.716242607
-0.04896951839327812 0.24449577927589417 0.96036696434021 -0.9559728503227234 -0.37215456366539 -0.17310510575771332  738318.7162427225
-0.05015647038817406 0.24246664345264435 0.9619637727737427 -0.9354696869850159 -0.3025122284889221 -0.180825337767601  738318.7162428959
-0.05134498327970505 0.24029290676116943 0.9641000628471375 -0.8672661781311035 -0.2665034234523773 -0.1891443133354187  738318.7162429303
-0.049542129039764404 0.2347085028886795 0.9656158685684204 -0.7694775462150574 -0.17670612037181854 -0.19085492193698883  738318.7162429767
-0.051047541201114655 0.23141872882843018 0.9701605439186096 -0.570479691028595 -0.17927581071853638 -0.18871240317821503  738318.7162432765
-0.05157521739602089 0.23032602667808533 0.9712364077568054 -0.5412612557411194 -0.18097591400146484 -0.20148877799510956  738318.716243392
-0.05237667262554169 0.2279878705739975 0.970385730266571 -0.5322156548500061 -0.19978906214237213 -0.21255816519260406  738318.7162434843
-0.052910659462213516 0.22689005732536316 0.9712396860122681 -0.5839973092079163 -0.24174167215824127 -0.23083458840847015  738318.7162437517
-0.05100855231285095 0.22090530395507812 0.9734514951705933 -0.6344600319862366 -0.3564620018005371 -0.26922541856765747  738318.7162438671
-0.05171441659331322 0.21843880414962769 0.9729785919189453 -0.6897171139717102 -0.40478453040122986 -0.28546589612960815  738318.7162442134
-0.05216047167778015 0.21723836660385132 0.9737517237663269 -0.6679638624191284 -0.39201870560646057 -0.28714272379875183  738318.7162444212
-0.052442584186792374 0.21587447822093964 0.974522590637207 -0.6400783658027649 -0.33063802123069763 -0.2808268368244171  738318.7162445482
-0.052442584186792374 0.21587447822093964 0.974522590637207 -0.6400783658027649 -0.33063802123069763 -0.2808268368244171  738318.7162446405
-0.05284898728132248 0.21477001905441284 0.9755470752716064 -0.5796246528625488 -0.3024827837944031 -0.2792215347290039  738318.7162447899
-0.05377364531159401 0.21317414939403534 0.9771094918251038 -0.49760887026786804 -0.19966894388198853 -0.2971489727497101  738318.7162448707
-0.05402581766247749 0.21212303638458252 0.9778509140014648 -0.42820653319358826 -0.10221194475889206 -0.28831374645233154  738318.7162449165
-0.05159362405538559 0.20820695161819458 0.9802570939064026 -0.28555023670196533 -0.03618650138378143 -0.2812226712703705  738318.7162449978
-0.052662502974271774 0.20502381026744843 0.9827473163604736 0.13152962923049927 0.06788413971662521 -0.27409499883651733  738318.7162452514
-0.05301474779844284 0.2039298415184021 0.9835661053657532 0.25111156702041626 0.030992241576313972 -0.25669923424720764  738318.7162453552
-0.05349254608154297 0.20278812944889069 0.9784009456634521 0.34515681862831116 0.03204210102558136 -0.260952353477478  738318.7162455055
-0.054209548979997635 0.20057234168052673 0.9793622493743896 0.4429679214954376 -0.04703851789236069 -0.25175246596336365  738318.7162457015
-0.054567769169807434 0.19945409893989563 0.9798409938812256 0.47312697768211365 -0.068463034927845 -0.25146767497062683  738318.7162457365
-0.05492027848958969 0.19835332036018372 0.9831749200820923 0.46749210357666016 -0.07480894029140472 -0.250251442193985  738318.7162459439
-0.05199280381202698 0.1952798068523407 0.9843066334724426 0.48157504200935364 -0.05359109118580818 -0.2601623833179474  738318.7162459568
-0.05254601687192917 0.19137272238731384 0.986868679523468 0.48048654198646545 0.0435638464987278 -0.18721821904182434  738318.7162462675
-0.05313413590192795 0.1889110803604126 0.9879157543182373 0.5876613855361938 0.12011512368917465 -0.16471266746520996  738318.7162463136
-0.05348995327949524 0.18749476969242096 0.9885196089744568 0.6813361644744873 0.18867851793766022 -0.1508493274450302  738318.7162465095
-0.053828489035367966 0.1864825189113617 0.9909494519233704 0.7519163489341736 0.27230575680732727 -0.1384328156709671  738318.716246625
-0.05414964631199837 0.1851309984922409 0.9915878176689148 0.8680830001831055 0.29877856373786926 -0.12133441120386124  738318.7162466596
-0.050924066454172134 0.1817222237586975 0.9934754967689514 1.1052882671356201 0.42047521471977234 -0.10960212349891663  738318.7162469601
-0.051379408687353134 0.1791575849056244 0.9972904920578003 1.261346697807312 0.4218462407588959 -0.08240840584039688  738318.7162470982
-0.05142311379313469 0.17740067839622498 0.998008668422699 1.2683637142181396 0.4798043668270111 -0.07576041668653488  738318.7162471255
-0.05183214321732521 0.1763153225183487 0.9987208247184753 1.310361385345459 0.4768151640892029 -0.0759587213397026  738318.7162472178
-0.052113573998212814 0.17494046688079834 0.999415934085846 1.30108642578125 0.4872947633266449 -0.07007402926683426  738318.7162473219
-0.05241658166050911 0.17333611845970154 1.0022796392440796 1.3141930103302002 0.5041073560714722 -0.07254736870527267  738318.716247426
-0.0527147613465786 0.17191082239151 1.003023386001587 1.3159352540969849 0.502001166343689 -0.07834402471780777  738318.7162475414
-0.05267290025949478 0.17033270001411438 1.0037277936935425 1.3223797082901 0.4907327890396118 -0.08460809290409088  738318.7162476338
-0.0529848113656044 0.16911976039409637 1.0044101476669312 1.3530791997909546 0.48830050230026245 -0.07706338912248611  738318.7162477951
-0.04982666298747063 0.16307587921619415 1.0094530582427979 1.5753751993179321 0.5070526599884033 -0.07510846108198166  738318.7162480954
-0.050109606236219406 0.16147220134735107 1.0102280378341675 1.6454466581344604 0.5040708780288696 -0.07885607331991196  738318.7162481644
-0.05035840719938278 0.15987083315849304 1.0078500509262085 1.7083103656768799 0.5130766034126282 -0.08355722576379776  738318.7162482683
-0.05076974257826805 0.15824133157730103 1.0083802938461304 1.742926001548767 0.6119329333305359 -0.08882635831832886  738318.7162483722
-0.051011476665735245 0.15658125281333923 1.0088804960250854 1.7680715322494507 0.6510671377182007 -0.08257870376110077  738318.7162486031
-0.05133058503270149 0.15486960113048553 1.0093398094177246 1.7835097312927246 0.6720836162567139 -0.09139002114534378  738318.7162486493
-0.04803759604692459 0.15263977646827698 1.0103864669799805 1.8090537786483765 0.7233428359031677 -0.1080581322312355  738318.7162487535
-0.048167988657951355 0.15123818814754486 1.0086934566497803 1.8027737140655518 0.7583966255187988 -0.1037612035870552  738318.7162489609
-0.04887756332755089 0.1477108746767044 1.0091171264648438 1.8074190616607666 0.8863340020179749 -0.09517255425453186  738318.71624918
-0.04921317473053932 0.14585736393928528 1.009321689605713 1.7803298234939575 0.9391660094261169 -0.08707939833402634  738318.7162493091
-0.05061785876750946 0.14266268908977509 1.0103305578231812 1.6891217231750488 1.000976324081421 -0.0740191861987114  738318.7162493899
-0.050309918820858 0.13854248821735382 1.010406732559204 1.6817535161972046 1.0122158527374268 -0.0651741474866867  738318.7162495634
-0.05109843611717224 0.13421380519866943 1.011950969696045 1.734804630279541 0.9286426901817322 -0.04392257332801819  738318.7162496556
-0.04730026423931122 0.13217367231845856 1.0125226974487305 1.725855827331543 0.9305710792541504 -0.048610661178827286  738318.7162499786
-0.047689370810985565 0.13009800016880035 1.0125876665115356 1.740531086921692 0.8371115326881409 -0.03147514909505844  738318.7162500941
