% x y z r p yw  738318.71256453
-0.08809033781290054 0.1843855232000351 0.770502507686615 -1.4529930353164673 0.5290991067886353 -0.1579042375087738  738318.7127664674
-0.09012419730424881 0.18534566462039948 0.7705482244491577 -1.440220832824707 0.5448898077011108 -0.14531022310256958  738318.71276656
-0.09176293760538101 0.18554049730300903 0.7706105709075928 -1.4373911619186401 0.5607646107673645 -0.13531367480754852  738318.7127666525
-0.09348216652870178 0.18651165068149567 0.7730143666267395 -1.3839590549468994 0.5254881381988525 -0.12948255240917206  738318.7127668252
-0.09513356536626816 0.18674786388874054 0.773177981376648 -1.3608886003494263 0.4873139560222626 -0.1230885237455368  738318.7127669407
-0.09587941318750381 0.18347154557704926 0.7737897038459778 -1.2803860902786255 0.5049811601638794 -0.1014140173792839  738318.7127671369
-0.09767875075340271 0.18442405760288239 0.7739551663398743 -1.2617486715316772 0.488720178604126 -0.10175441950559616  738318.7127673564
-0.09947164356708527 0.18494878709316254 0.7747324705123901 -1.2806298732757568 0.4645649492740631 -0.10620371252298355  738318.7127674043
-0.10122641921043396 0.1855776011943817 0.7748819589614868 -1.2743934392929077 0.4285774230957031 -0.10818460583686829  738318.7127675428
-0.10262853652238846 0.18598008155822754 0.7750369310379028 -1.2983237504959106 0.415459543466568 -0.11004649102687836  738318.7127677274
-0.10435869544744492 0.18672119081020355 0.7751952409744263 -1.3144887685775757 0.4136947691440582 -0.11512932926416397  738318.7127677621
-0.10605045408010483 0.18730352818965912 0.7740124464035034 -1.339576244354248 0.4577081799507141 -0.10904913395643234  738318.7127679583
-0.10798335075378418 0.18829695880413055 0.7741005420684814 -1.3486051559448242 0.4455050230026245 -0.1079498901963234  738318.7127680968
-0.10978696495294571 0.18898195028305054 0.7741641402244568 -1.3167976140975952 0.42669737339019775 -0.10604716837406158  738318.7127682472
-0.11165917664766312 0.1896779090166092 0.7742061018943787 -1.288205862045288 0.42940080165863037 -0.11288722604513168  738318.7127683277
-0.11345773190259933 0.19045838713645935 0.7742431163787842 -1.2380677461624146 0.40497660636901855 -0.11107870191335678  738318.7127684547
-0.1167457103729248 0.19111168384552002 0.7706684470176697 -1.0661238431930542 0.2804780900478363 -0.11469537019729614  738318.7127687818
-0.1185416579246521 0.18890054523944855 0.770742654800415 -0.8957846760749817 0.3844503164291382 -0.0958835557103157  738318.7127690476
-0.12025247514247894 0.18949562311172485 0.7699269652366638 -0.7946559190750122 0.3525789678096771 -0.09757260233163834  738318.712769236
-0.12202222645282745 0.19030405580997467 0.7696700692176819 -0.7332730293273926 0.322030246257782 -0.10252165049314499  738318.7127693975
-0.12374710291624069 0.19114190340042114 0.7693846821784973 -0.6817798614501953 0.2654534876346588 -0.10470631718635559  738318.7127695711
-0.1255500763654709 0.19184044003486633 0.7690710425376892 -0.6689733266830444 0.24409274756908417 -0.10984931886196136  738318.7127697207
-0.12731125950813293 0.19260388612747192 0.7687562704086304 -0.6782646775245667 0.18635118007659912 -0.11469430476427078  738318.7127697784
-0.1289888322353363 0.193477600812912 0.7685233950614929 -0.6591989994049072 0.10275641828775406 -0.11528099328279495  738318.7127698131
-0.12814611196517944 0.19036076962947845 0.7687079310417175 -0.6320984363555908 -0.040814053267240524 -0.11254029721021652  738318.71276994
-0.13181166350841522 0.19188489019870758 0.7682567238807678 -0.6842250823974609 -0.13148534297943115 -0.10005895048379898  738318.7127701825
-0.13356709480285645 0.19261226058006287 0.7656939029693604 -0.6850713491439819 -0.15204337239265442 -0.10477966070175171  738318.7127702864
-0.13542358577251434 0.19335423409938812 0.7653985023498535 -0.6301517486572266 -0.17768284678459167 -0.09839120507240295  738318.7127703445
-0.13898208737373352 0.1952769011259079 0.7648434042930603 -0.5604847073554993 -0.21660396456718445 -0.08045177906751633  738318.7127704942
-0.14080436527729034 0.19602084159851074 0.7624570727348328 -0.4884873628616333 -0.16030922532081604 -0.06921202689409256  738318.7127706903
-0.14434070885181427 0.19772924482822418 0.7616938352584839 -0.37407833337783813 -0.0388031080365181 -0.03559626638889313  738318.7127708775
-0.1461063027381897 0.19859419763088226 0.7613099813461304 -0.3074292540550232 0.010213721543550491 -0.027136819437146187  738318.7127710737
-0.1467675119638443 0.19648334383964539 0.7619924545288086 -0.15105649828910828 0.21959128975868225 -0.0064897011034190655  738318.7127712584
-0.15023700892925262 0.19810666143894196 0.7614216804504395 -0.08549678325653076 0.2510840892791748 0.03771648928523064  738318.7127713853
-0.14590269327163696 0.19592945277690887 0.7612463235855103 -0.03380053490400314 0.12593619525432587 0.04776281490921974  738318.7127715127
-0.14749474823474884 0.19675549864768982 0.7640156745910645 0.010980670340359211 0.053464241325855255 0.053719036281108856  738318.7127715935
-0.1490289866924286 0.19747033715248108 0.7640062570571899 0.020099129527807236 -0.011576935648918152 0.07039795070886612  738318.712771801
-0.15022236108779907 0.197837695479393 0.7640146017074585 0.03704889118671417 -0.0528113953769207 0.0950535386800766  738318.7127720203
-0.15183845162391663 0.19851425290107727 0.7640489935874939 0.04357227310538292 -0.07329311221837997 0.10810708999633789  738318.7127722064
-0.15351532399654388 0.1992851197719574 0.7641437649726868 0.05322424694895744 -0.0795527771115303 0.12298759073019028  738318.7127725185
-0.15432296693325043 0.19674435257911682 0.7638617157936096 0.1334732621908188 0.10620639473199844 0.0493374727666378  738318.7127726335
-0.15586954355239868 0.19735100865364075 0.7639622092247009 0.14064349234104156 0.20394040644168854 0.0616549551486969  738318.7127727374
-0.1574188768863678 0.19795525074005127 0.7640885710716248 0.09967190772294998 0.35742512345314026 0.07719094306230545  738318.7127729682
-0.15897323191165924 0.19855739176273346 0.7642412185668945 0.07931680977344513 0.4558844268321991 0.09584840387105942  738318.7127730607
-0.16052094101905823 0.19913257658481598 0.7615274786949158 0.042783673852682114 0.5514557957649231 0.11007298529148102  738318.7127731877
-0.16209065914154053 0.19973134994506836 0.7615506052970886 0.01374651025980711 0.6175248026847839 0.12171980738639832  738318.7127733954
-0.1636703759431839 0.20032961666584015 0.7615727186203003 -0.008975318633019924 0.7338247299194336 0.13590632379055023  738318.7127734761
-0.15812557935714722 0.19595013558864594 0.762820303440094 -0.07790742814540863 0.6487910151481628 0.11903965473175049  738318.7127738686
-0.15935175120830536 0.1963759958744049 0.7629196047782898 -0.09710842370986938 0.5859785676002502 0.1286914199590683  738318.7127739494
-0.16075897216796875 0.1968148797750473 0.763012170791626 -0.09185178577899933 0.5415939092636108 0.1418166160583496  738318.7127740418
-0.1620553880929947 0.19724375009536743 0.7631105184555054 -0.10958188027143478 0.5584152340888977 0.1578950583934784  738318.7127743997
-0.1633533090353012 0.19769342243671417 0.7643329501152039 -0.0908733457326889 0.5368248224258423 0.16860561072826385  738318.7127745381
-0.16458211839199066 0.19759638607501984 0.764480710029602 -0.1115088164806366 0.5784903168678284 0.17727015912532806  738318.7127746074
-0.1660517305135727 0.19824837148189545 0.7645832896232605 -0.1306697428226471 0.6446841359138489 0.1872858852148056  738318.712774677
-0.1674136519432068 0.19849441945552826 0.7646633982658386 -0.21058551967144012 0.8061133623123169 0.1921560913324356  738318.7127748037
-0.16871681809425354 0.19891473650932312 0.7624124884605408 -0.2417832612991333 0.9952788949012756 0.20075787603855133  738318.7127749537
-0.1714247167110443 0.19978943467140198 0.7623203992843628 -0.2892105281352997 1.2442717552185059 0.21281218528747559  738318.7127750926
-0.17346063256263733 0.20052196085453033 0.7629355192184448 -0.493685245513916 1.3298189640045166 0.1788489669561386  738318.7127753927
-0.17485882341861725 0.20122842490673065 0.762875497341156 -0.5427118539810181 1.4286855459213257 0.1844656765460968  738318.7127756275
-0.17626672983169556 0.20156632363796234 0.7615548372268677 -0.5933396220207214 1.5126475095748901 0.19765591621398926  738318.7127756969
-0.17778897285461426 0.20209068059921265 0.761401355266571 -0.6342790722846985 1.517983078956604 0.19822551310062408  738318.7127758468
-0.1805902123451233 0.20312947034835815 0.7610681653022766 -0.6414516568183899 1.4428765773773193 0.21075835824012756  738318.7127759738
-0.18199683725833893 0.2035646289587021 0.7616149187088013 -0.6183724999427795 1.361777663230896 0.21203424036502838  738318.7127761933
-0.18510347604751587 0.20475026965141296 0.7612473368644714 -0.5465096235275269 1.2507638931274414 0.2278522104024887  738318.7127762397
-0.18664522469043732 0.2054264396429062 0.7610738277435303 -0.47746044397354126 1.1894726753234863 0.23575693368911743  738318.712776286
-0.18894720077514648 0.20468635857105255 0.7616842985153198 -0.45148733258247375 1.1960854530334473 0.2602003216743469  738318.7127765048
-0.19232277572155 0.20563843846321106 0.7607079744338989 -0.3862861692905426 1.255431890487671 0.27072980999946594  738318.7127766551
-0.19571712613105774 0.20689624547958374 0.7604714632034302 -0.35401302576065063 1.4019310474395752 0.2770591378211975  738318.7127767706
-0.19761984050273895 0.20762957632541656 0.76048743724823 -0.34192773699760437 1.4050835371017456 0.2769845128059387  738318.7127768745
-0.2047841101884842 0.20987029373645782 0.7612001895904541 -0.39768746495246887 1.2359650135040283 0.2436114102602005  738318.7127771861
-0.20731116831302643 0.20877410471439362 0.7617850303649902 -0.38297778367996216 1.2345647811889648 0.25433021783828735  738318.7127773942
-0.20910513401031494 0.20916345715522766 0.761823832988739 -0.3958398699760437 1.2001686096191406 0.25361233949661255  738318.7127774284
-0.21291351318359375 0.21029725670814514 0.7618880867958069 -0.3386151194572449 1.040592074394226 0.22316113114356995  738318.7127775786
-0.21491342782974243 0.21091514825820923 0.7630952000617981 -0.3260727524757385 0.8668675422668457 0.21532519161701202  738318.712777818
-0.21669745445251465 0.21122942864894867 0.7632175087928772 -0.2704549729824066 0.7276763319969177 0.1990591138601303  738318.712777911
-0.22098487615585327 0.21264100074768066 0.7635241150856018 -0.20692665874958038 0.5984243750572205 0.1835678219795227  738318.7127780609
-0.22295381128787994 0.2132340967655182 0.7637750506401062 -0.19639883935451508 0.5275048613548279 0.16557756066322327  738318.7127780959
-0.2250801920890808 0.21384283900260925 0.7638998627662659 -0.18027755618095398 0.47457465529441833 0.1566503942012787  738318.7127782918
-0.2270805835723877 0.21199555695056915 0.7646192312240601 -0.15496116876602173 0.6105520725250244 0.16503062844276428  738318.7127786034
-0.22919152677059174 0.21280436217784882 0.7647244334220886 -0.12737861275672913 0.6162932515144348 0.15858972072601318  738318.7127787535
-0.23131409287452698 0.21344371140003204 0.7644882202148438 -0.11627206206321716 0.6258747577667236 0.14568980038166046  738318.71277895
-0.2334526628255844 0.214033842086792 0.7645371556282043 -0.08475813269615173 0.5612512826919556 0.1351442039012909  738318.7127789843
-0.23546786606311798 0.2146175354719162 0.7645836472511292 -0.07162262499332428 0.486111044883728 0.12526993453502655  738318.7127790949
-0.23767831921577454 0.21534739434719086 0.7646046876907349 -0.0731663927435875 0.37704265117645264 0.11553850024938583  738318.7127792337
-0.2399131953716278 0.215867280960083 0.7646133899688721 -0.023451408371329308 0.28011342883110046 0.10803934931755066  738318.7127795109
-0.24189849197864532 0.21622994542121887 0.7659347653388977 -0.06380178779363632 0.17132648825645447 0.10068988054990768  738318.7127796606
-0.24393343925476074 0.2170581817626953 0.7659746408462524 -0.07379206269979477 0.018331682309508324 0.08930373936891556  738318.7127797417
-0.24623309075832367 0.21745729446411133 0.7659911513328552 -0.11263599246740341 -0.11842266470193863 0.0714079812169075  738318.7127797876
-0.2473488599061966 0.2158234715461731 0.7667303681373596 -0.11963196843862534 -0.2128584384918213 0.09762164205312729  738318.7127799494
-0.24960392713546753 0.21657492220401764 0.7684212923049927 -0.10877084732055664 -0.31873929500579834 0.08313412964344025  738318.7127802862
-0.2516217529773712 0.2172403335571289 0.7685600519180298 -0.09460050612688065 -0.39352720975875854 0.07039529830217361  738318.7127804708
-0.2536855638027191 0.21767163276672363 0.7687054872512817 -0.04429874196648598 -0.48367708921432495 0.06460718810558319  738318.7127805975
-0.25582119822502136 0.21826672554016113 0.7688244581222534 -0.015026669017970562 -0.5781013369560242 0.046570636332035065  738318.7127808861
-0.2601611018180847 0.21952900290489197 0.7702406048774719 0.0576566718518734 -0.5669981241226196 0.036416903138160706  738318.7127810707
-0.26226603984832764 0.22000998258590698 0.7703855633735657 0.10366728156805038 -0.5591987371444702 0.03365224227309227  738318.7127811057
-0.26452773809432983 0.22049039602279663 0.7705298066139221 0.1549183428287506 -0.5547459125518799 0.027758654206991196  738318.7127811632
-0.26601001620292664 0.21917922794818878 0.7760182023048401 0.19819825887680054 -0.6049581170082092 0.051917560398578644  738318.7127813951
-0.2719271779060364 0.21983271837234497 0.7772821187973022 0.1323884129524231 -0.5489400625228882 0.05417098477482796  738318.7127816606
-0.27363720536231995 0.2201596200466156 0.7776885032653809 0.13166093826293945 -0.5896874070167542 0.04743186756968498  738318.7127818221
-0.27558988332748413 0.22060491144657135 0.7749992609024048 0.13268350064754486 -0.6042391657829285 0.04722452908754349  738318.7127818913
-0.27744004130363464 0.22149504721164703 0.775222897529602 0.11069540679454803 -0.638482928276062 0.05780820921063423  738318.7127819491
-0.2813001573085785 0.22234086692333221 0.7756223678588867 0.10674681514501572 -0.6768373250961304 0.056767258793115616  738318.7127820068
-0.2832125425338745 0.22279483079910278 0.7744066119194031 0.14910988509655 -0.700577437877655 0.07338941097259521  738318.7127822263
-0.2819391191005707 0.22075031697750092 0.7750149369239807 0.16599908471107483 -0.7927248477935791 -0.03705505281686783  738318.7127823762
-0.28727757930755615 0.22187204658985138 0.7740500569343567 0.24547874927520752 -0.7311142086982727 0.035521410405635834  738318.7127826994
-0.28916171193122864 0.22216680645942688 0.7740972638130188 0.25993454456329346 -0.7006097435951233 0.05455850064754486  738318.7127827571
-0.29310762882232666 0.2240353673696518 0.7742127776145935 0.22818444669246674 -0.6525056958198547 0.09100589901208878  738318.7127830457
-0.2948176860809326 0.22417505085468292 0.7742493748664856 0.20771999657154083 -0.6060281991958618 0.10675077885389328  738318.7127831496
-0.29656898975372314 0.2245817929506302 0.7741499543190002 0.19769321382045746 -0.5047473907470703 0.12175027281045914  738318.7127833111
-0.29839345812797546 0.22491364181041718 0.7741363644599915 0.19477052986621857 -0.44647538661956787 0.1427253633737564  738318.712783369
-0.29779744148254395 0.22293782234191895 0.7746296525001526 0.17006723582744598 -0.40482962131500244 0.017708729952573776  738318.7127836228
-0.30121666193008423 0.22365128993988037 0.7736521363258362 0.19795331358909607 -0.321003794670105 0.06505148112773895  738318.7127838747
-0.3028991222381592 0.22401271760463715 0.7736071348190308 0.20934273302555084 -0.26701295375823975 0.09673679620027542  738318.712784036
-0.3045765161514282 0.22437065839767456 0.7735675573348999 0.24066856503486633 -0.2670055627822876 0.11627518385648727  738318.712784082
-0.306296169757843 0.22492513060569763 0.7756267189979553 0.25665879249572754 -0.41141435503959656 0.17260117828845978  738318.7127844053
-0.30788272619247437 0.22517593204975128 0.7756978273391724 0.2457619607448578 -0.45472514629364014 0.20179061591625214  738318.7127845322
-0.3093980848789215 0.2254277467727661 0.7757608890533447 0.21761102974414825 -0.45468631386756897 0.22043199837207794  738318.7127845784
-0.3087182641029358 0.22295022010803223 0.7762686014175415 0.19477567076683044 -0.39923804998397827 0.18120236694812775  738318.7127847631
-0.3101808726787567 0.22296437621116638 0.7763039469718933 0.1701790690422058 -0.38808199763298035 0.19616420567035675  738318.7127849482
-0.31332942843437195 0.2235734760761261 0.7757518291473389 0.14104413986206055 -0.2576545774936676 0.2429041862487793  738318.7127850401
-0.3148490786552429 0.22372733056545258 0.7756907343864441 0.15278315544128418 -0.1911308318376541 0.26493406295776367  738318.7127850864
-0.3163812458515167 0.22398118674755096 0.7756234407424927 0.12298452854156494 -0.1413826048374176 0.2796941101551056  738318.7127851329
-0.3179144263267517 0.22423456609249115 0.7737579941749573 0.11354178935289383 -0.13571897149085999 0.30127233266830444  738318.7127854557
-0.3196389377117157 0.22449083626270294 0.7735803127288818 0.09458900988101959 -0.08917549252510071 0.3126716911792755  738318.7127855828
-0.32117119431495667 0.2247389703989029 0.7734113335609436 0.07117035984992981 -0.05817747488617897 0.33688005805015564  738318.7127856754
-0.32270216941833496 0.22498567402362823 0.7732580900192261 0.036192864179611206 -0.01453342568129301 0.36535564064979553  738318.7127858251
-0.3228156268596649 0.222121924161911 0.7733933925628662 0.06921934336423874 -0.07658226788043976 0.3601376414299011  738318.7127859059
-0.32733526825904846 0.22252629697322845 0.7731841802597046 0.03220576420426369 -0.06658107042312622 0.46347296237945557  738318.7127861024
-0.3300497829914093 0.22270114719867706 0.7743408679962158 0.013914834707975388 -0.15274979174137115 0.5222271680831909  738318.7127862064
-0.3315766453742981 0.2228970229625702 0.7743791341781616 -0.01957668550312519 -0.11396852880716324 0.5570487976074219  738318.7127862986
-0.3344619870185852 0.22316397726535797 0.7744616866111755 -0.10627066344022751 0.04308602958917618 0.6121626496315002  738318.71278646
-0.33591556549072266 0.22333386540412903 0.775148332118988 -0.14848490059375763 0.1011129841208458 0.6421666145324707  738318.7127865985
-0.3342953622341156 0.22055009007453918 0.7756555080413818 -0.15243138372898102 0.06965264678001404 0.622694194316864  738318.7127867489
-0.33568188548088074 0.22067365050315857 0.7757863402366638 -0.20737792551517487 0.12677748501300812 0.6459820866584778  738318.7127868293
-0.3381998538970947 0.221107617020607 0.775699257850647 -0.27838703989982605 0.1424190253019333 0.687278687953949  738318.7127871872
-0.33948904275894165 0.22116698324680328 0.775838315486908 -0.2909107804298401 0.09566974639892578 0.7087752819061279  738318.7127872453
-0.34097230434417725 0.22133584320545197 0.7759968042373657 -0.3182811439037323 0.09160672128200531 0.7307875752449036  738318.7127873142
-0.34236031770706177 0.22148533165454865 0.7761538028717041 -0.3427888751029968 0.1201978474855423 0.7537287473678589  738318.7127874646
-0.34375372529029846 0.22164016962051392 0.7793039679527283 -0.3901183009147644 0.16504158079624176 0.7778328657150269  738318.7127875335
-0.3448156714439392 0.22139975428581238 0.7796180248260498 -0.36145856976509094 0.1695546656847 0.7961158752441406  738318.7127876489
-0.3448801338672638 0.2177310734987259 0.7802219986915588 -0.26330140233039856 0.23310746252536774 0.9207064509391785  738318.7127877878
-0.34901344776153564 0.21790847182273865 0.7768878936767578 -0.3068980276584625 0.30760279297828674 0.9676790833473206  738318.7127880302
-0.3502494692802429 0.21892566978931427 0.7769542336463928 -0.3934793770313263 0.3156031370162964 0.9690572619438171  738318.7127880991
-0.3516393005847931 0.2190348207950592 0.7770160436630249 -0.45443764328956604 0.32488203048706055 0.9745698571205139  738318.7127882723
-0.35312071442604065 0.2193307876586914 0.7770732045173645 -0.5325548052787781 0.37844523787498474 0.9859800934791565  738318.71278848
-0.35446491837501526 0.2194269746541977 0.7770867943763733 -0.5988348126411438 0.4038950502872467 0.9833451509475708  738318.7127885381
-0.3573443591594696 0.21978382766246796 0.7772282958030701 -0.6961843371391296 0.43277350068092346 0.9877603650093079  738318.712788642
-0.3587705194950104 0.21994762122631073 0.7772959470748901 -0.7357604503631592 0.4800203740596771 0.9867074489593506  738318.7127886993
-0.3595314919948578 0.214546337723732 0.7752187252044678 -0.7029414772987366 0.4986557960510254 1.034277319908142  738318.7127889186
-0.36376193165779114 0.214741051197052 0.7752261161804199 -0.6710587739944458 0.3397723436355591 1.0155727863311768  738318.7127891299
-0.36529362201690674 0.21490013599395752 0.7766951322555542 -0.6570311784744263 0.3157555162906647 1.0119901895523071  738318.7127891643
-0.36669668555259705 0.21499773859977722 0.776788055896759 -0.667877733707428 0.2509884536266327 0.9992375373840332  738318.7127892338
-0.36814603209495544 0.2151109278202057 0.7769212126731873 -0.7184337377548218 0.2169906049966812 0.9904501438140869  738318.7127893837
-0.36959972977638245 0.21523639559745789 0.777091383934021 -0.7612214088439941 0.2058231234550476 0.9878764748573303  738318.7127895873
-0.3705281913280487 0.21219661831855774 0.7781596779823303 -0.762069582939148 0.1828828603029251 1.0402286052703857  738318.7127896451
-0.3719916343688965 0.21232807636260986 0.7784271240234375 -0.8466953635215759 0.16961194574832916 1.0231009721755981  738318.7127898417
-0.3781983554363251 0.21281005442142487 0.7749291062355042 -1.1378568410873413 0.2977942228317261 0.9684295058250427  738318.7127899682
-0.37967145442962646 0.2129707932472229 0.7749786972999573 -1.170642375946045 0.3050236403942108 0.9537994861602783  738318.7127900837
-0.3811499774456024 0.21315103769302368 0.7750200033187866 -1.1678779125213623 0.34824568033218384 0.931788444519043  738318.7127901416
-0.38263845443725586 0.21336035430431366 0.7761610746383667 -1.1612240076065063 0.3540462255477905 0.9038293957710266  738318.7127902802
-0.3837128281593323 0.21054647862911224 0.7769178748130798 -1.1352269649505615 0.3341695964336395 0.9316318035125732  738318.7127903957
-0.38510361313819885 0.2099536508321762 0.7770758271217346 -1.1077380180358887 0.26346850395202637 0.9104741811752319  738318.712790707
-0.38652122020721436 0.2103927731513977 0.776699423789978 -1.0894514322280884 0.15339170396327972 0.8777969479560852  738318.7127908916
-0.3880673348903656 0.21065030992031097 0.7768265604972839 -1.0791653394699097 0.09013745933771133 0.8581491112709045  738318.7127909494
-0.38947367668151855 0.21070268750190735 0.776944637298584 -1.079209566116333 0.05799717456102371 0.842558741569519  738318.7127909956
-0.3908560872077942 0.2109922170639038 0.7770654559135437 -1.0615264177322388 0.012826219201087952 0.8125865459442139  738318.7127910764
-0.39515221118927 0.21154813468456268 0.7797490954399109 -1.0825237035751343 -0.13347937166690826 0.7430378794670105  738318.7127914231
-0.39654824137687683 0.2120078206062317 0.7799810767173767 -1.0633517503738403 -0.13926878571510315 0.7174733877182007  738318.7127914688
-0.3958847224712372 0.20957453548908234 0.7808105945587158 -0.98716139793396 -0.19231174886226654 0.7297114133834839  738318.7127915154
-0.3987540006637573 0.21005061268806458 0.7833452224731445 -0.9831233024597168 -0.21476905047893524 0.6738848090171814  738318.7127917196
-0.40013620257377625 0.2103969156742096 0.7837516069412231 -0.9594402313232422 -0.1762232929468155 0.6479811668395996  738318.7127918117
-0.40312424302101135 0.21058431267738342 0.784558892250061 -0.9108957648277283 -0.02439654991030693 0.6077788472175598  738318.7127919502
-0.40457749366760254 0.21145352721214294 0.78230220079422 -0.9101366400718689 0.005208875052630901 0.5777957439422607  738318.712792054
-0.4059423804283142 0.2116129994392395 0.7825424075126648 -0.8962163925170898 0.01751263625919819 0.554051399230957  738318.712792158
-0.40739667415618896 0.21214519441127777 0.7827483415603638 -0.8781369924545288 0.023882778361439705 0.5227301120758057  738318.7127921926
-0.4088549315929413 0.21235844492912292 0.7829209566116333 -0.8885056972503662 0.03405996784567833 0.4916662871837616  738318.7127924119
-0.40825170278549194 0.21024583280086517 0.7826727032661438 -0.8194785714149475 -0.0076601444743573666 0.48577696084976196  738318.7127926659
-0.4095629155635834 0.21046903729438782 0.7827761173248291 -0.8229027986526489 -0.056982625275850296 0.45730316638946533  738318.7127927238
-0.4109516739845276 0.21091413497924805 0.782879650592804 -0.8239426016807556 -0.09046246856451035 0.42557334899902344  738318.7127930699
-0.41368958353996277 0.21177539229393005 0.7845569252967834 -0.7831385731697083 -0.04856221377849579 0.3676859140396118  738318.7127931737
-0.4150668680667877 0.21219748258590698 0.7847296595573425 -0.789814829826355 -0.04507259652018547 0.33627644181251526  738318.7127932204
-0.4164145588874817 0.2121032476425171 0.7849058508872986 -0.7200632691383362 -0.05084158852696419 0.31335780024528503  738318.7127933931
-0.417717844247818 0.21237757802009583 0.7850784659385681 -0.6535859704017639 -0.03965417668223381 0.27967169880867004  738318.712793474
-0.4206983745098114 0.2134247124195099 0.7853024005889893 -0.49351561069488525 0.06860580295324326 0.22933703660964966  738318.7127937741
-0.4204109013080597 0.21121524274349213 0.7858472466468811 -0.369988352060318 0.029411479830741882 0.20243029296398163  738318.7127938895
-0.42351794242858887 0.21144887804985046 0.786091148853302 -0.2462811917066574 0.07273681461811066 0.16818921267986298  738318.7127941439
-0.4252202808856964 0.21207119524478912 0.7846242189407349 -0.1814461648464203 0.08641505241394043 0.14656507968902588  738318.712794259
-0.42794087529182434 0.21295203268527985 0.7846733331680298 -0.12110397964715958 0.06426751613616943 0.12772247195243835  738318.712794409
-0.42935681343078613 0.2134931981563568 0.7846705317497253 -0.10950985550880432 0.0834302082657814 0.1218428984284401  738318.7127945364
-0.4307427704334259 0.2139105498790741 0.7846169471740723 -0.15705333650112152 0.15188993513584137 0.1157442182302475  738318.7127945822
-0.4332238733768463 0.21432532370090485 0.7859228849411011 -0.16464368999004364 0.15614348649978638 0.08273138105869293  738318.7127948131
-0.4347134828567505 0.21464413404464722 0.7858986258506775 -0.18118955194950104 0.132503941655159 0.06610579788684845  738318.7127949169
-0.4340440332889557 0.21237565577030182 0.7864209413528442 -0.16620557010173798 0.23346054553985596 0.11824286729097366  738318.7127951363
-0.43818846344947815 0.21300332248210907 0.7836468815803528 -0.09089314937591553 0.32266756892204285 0.06895888596773148  738318.7127952748
-0.43958789110183716 0.21334488689899445 0.7835093140602112 -0.03193625062704086 0.33526042103767395 0.04784901440143585  738318.7127954368
-0.44080477952957153 0.21381089091300964 0.7863825559616089 -0.011649718508124352 0.3245060443878174 0.020946098491549492  738318.7127955172
-0.44214093685150146 0.2142905592918396 0.7863675951957703 0.024222200736403465 0.30629414319992065 0.013308265246450901  738318.7127957019
-0.4434410035610199 0.21453304588794708 0.7863271832466125 0.03754658252000809 0.26633843779563904 -0.01712113618850708  738318.7127957365
-0.44487324357032776 0.21482865512371063 0.7862598896026611 0.07758589833974838 0.24495401978492737 -0.032821446657180786  738318.7127958635
-0.44563034176826477 0.21349979937076569 0.7860050797462463 0.15005072951316833 0.18332085013389587 -0.04370135813951492  738318.7127959905
-0.4495849311351776 0.21436218917369843 0.7858211398124695 0.12242790311574936 0.06520341336727142 -0.08487258106470108  738318.7127962329
-0.4525684118270874 0.2149527370929718 0.7854000329971313 0.1091664656996727 0.02184901013970375 -0.10793110728263855  738318.7127962906
-0.454096257686615 0.21527595818042755 0.7853620648384094 0.15151357650756836 0.025338370352983475 -0.11902841925621033  738318.7127966125
-0.45543134212493896 0.21565008163452148 0.7853416800498962 0.13254790008068085 0.09050297737121582 -0.1291983425617218  738318.7127966584
-0.4568433463573456 0.21590600907802582 0.7853303551673889 0.15984167158603668 0.06554819643497467 -0.1373191773891449  738318.7127968315
-0.4553544521331787 0.21430592238903046 0.7867985963821411 0.16665691137313843 0.04785102605819702 -0.14009660482406616  738318.7127970277
-0.45796889066696167 0.21462750434875488 0.7870569825172424 0.24013705551624298 0.00017014116747304797 -0.16044984757900238  738318.7127971892
-0.4606929123401642 0.21504667401313782 0.7877147793769836 0.2816753387451172 0.03227894380688667 -0.19010335206985474  738318.712797247
-0.4620230793952942 0.2153414487838745 0.7879413366317749 0.2862448990345001 0.039538051933050156 -0.19267168641090393  738318.7127974894
-0.46340569853782654 0.21543236076831818 0.7881752252578735 0.33667007088661194 0.015980763360857964 -0.21024121344089508  738318.7127975933
-0.4647088944911957 0.21569783985614777 0.7884197235107422 0.3848211467266083 0.020686699077486992 -0.22321639955043793  738318.7127977202
-0.4660809338092804 0.21591298282146454 0.7907674908638 0.4474675953388214 0.0010271008359268308 -0.2351306825876236  738318.7127978357
-0.4674518406391144 0.21611632406711578 0.7911695837974548 0.5061496496200562 -0.08128137141466141 -0.2504816949367523  738318.712797928
-0.4659195840358734 0.2143840193748474 0.791867196559906 0.5853627920150757 -0.06796452403068542 -0.3657219707965851  738318.7127981243
-0.46842503547668457 0.21453958749771118 0.7927889227867126 0.7100400924682617 -0.23764199018478394 -0.37644141912460327  738318.7127983787
-0.47121256589889526 0.21477413177490234 0.791694700717926 0.6950797438621521 -0.3252876102924347 -0.37963971495628357  738318.7127985283
-0.47374871373176575 0.21456143260002136 0.7922669649124146 0.6680352687835693 -0.32644718885421753 -0.3902432918548584  738318.7127985514
-0.4752998352050781 0.2146480828523636 0.7908820509910583 0.656144917011261 -0.31312257051467896 -0.39881783723831177  738318.7127986903
-0.4765413999557495 0.21459032595157623 0.7910299301147461 0.6768280267715454 -0.29112550616264343 -0.3953452706336975  738318.7127988515
-0.47784197330474854 0.21462619304656982 0.7911434173583984 0.6660115718841553 -0.26069533824920654 -0.40372946858406067  738318.712798898
-0.4776417016983032 0.21245427429676056 0.7917125821113586 0.744041919708252 -0.1641995906829834 -0.45785120129585266  738318.7127989325
-0.48007676005363464 0.21214953064918518 0.7923815250396729 0.8197500705718994 -0.29726743698120117 -0.46622925996780396  738318.712799117
-0.4813287854194641 0.21233302354812622 0.7924705743789673 0.8625719547271729 -0.3236714005470276 -0.4703781306743622  738318.7127992325
-0.48396503925323486 0.21205833554267883 0.7903625965118408 0.8596488237380981 -0.5213387608528137 -0.46263450384140015  738318.7127994633
-0.4847257435321808 0.21228080987930298 0.7902863025665283 0.8668205738067627 -0.6342025995254517 -0.45806142687797546  738318.7127994979
-0.4858223795890808 0.21198032796382904 0.7901909351348877 0.8762929439544678 -0.7362372279167175 -0.4631958305835724  738318.7127995903
-0.48701930046081543 0.21183224022388458 0.790069580078125 0.8743696808815002 -0.7550287842750549 -0.45516714453697205  738318.7127999963
-0.4862138032913208 0.20865973830223083 0.7916687726974487 1.0314892530441284 -0.7562556862831116 -0.5099877119064331  738318.712800216
-0.4874953329563141 0.20831117033958435 0.7916380763053894 1.0175129175186157 -0.811876118183136 -0.5060256123542786  738318.7128003195
-0.48771750926971436 0.20844130218029022 0.7916378974914551 1.0175129175186157 -0.811876118183136 -0.5060256123542786  738318.7128003656
-0.4888571798801422 0.20814035832881927 0.7916211485862732 0.9693615436553955 -0.8462918996810913 -0.5010340213775635  738318.7128005042
-0.48990246653556824 0.20770263671875 0.790891706943512 0.9553962349891663 -0.8608710765838623 -0.48947587609291077  738318.7128007005
-0.4910423755645752 0.2075851708650589 0.7908393740653992 0.8668737411499023 -0.853407621383667 -0.4856643080711365  738318.7128007928
-0.4920961856842041 0.207052543759346 0.7908098101615906 0.8172411322593689 -0.8551808595657349 -0.48179399967193604  738318.7128011656
-0.49317461252212524 0.206684410572052 0.790786623954773 0.7476953268051147 -0.8353545665740967 -0.47052204608917236  738318.7128011656
-0.4942384958267212 0.20630262792110443 0.7908042073249817 0.6723670959472656 -0.8288334012031555 -0.4629743695259094  738318.7128012923
-0.49514204263687134 0.20647387206554413 0.7907861471176147 0.6153891086578369 -0.8199658989906311 -0.456189900636673  738318.7128014078
-0.49281391501426697 0.2031812071800232 0.7910828590393066 0.6316060423851013 -0.949761152267456 -0.43338459730148315  738318.7128015578
-0.49378156661987305 0.20344160497188568 0.7911062836647034 0.5894795656204224 -1.005990982055664 -0.4243021011352539  738318.7128017079
-0.49466538429260254 0.2029646933078766 0.7933887839317322 0.5204570293426514 -1.0078643560409546 -0.4181893467903137  738318.7128018583
-0.49530738592147827 0.20224536955356598 0.7935552597045898 0.5177228450775146 -1.0784298181533813 -0.3993867337703705  738318.7128019391
-0.4961221516132355 0.20181705057621002 0.7937300801277161 0.47418341040611267 -1.1491186618804932 -0.3851090669631958  738318.7128019849
-0.4969119727611542 0.20121504366397858 0.7939208149909973 0.41293200850486755 -1.229403018951416 -0.37979012727737427  738318.7128021234
-0.4977179765701294 0.2007008045911789 0.793243944644928 0.34063419699668884 -1.2160212993621826 -0.36539360880851746  738318.7128022369
-0.49840402603149414 0.20013922452926636 0.7934131026268005 0.25749671459198 -1.1793216466903687 -0.3489575982093811  738318.7128022716
-0.4991621673107147 0.19960945844650269 0.7936033010482788 0.1869478076696396 -1.1467747688293457 -0.3417183756828308  738318.7128023093
-0.4972197115421295 0.1961698979139328 0.7931734323501587 0.0897020697593689 -1.0659501552581787 -0.3393740653991699  738318.7128026091
-0.4977416396141052 0.19540363550186157 0.7932981252670288 0.020767055451869965 -1.0055187940597534 -0.3231223225593567  738318.7128026783
-0.49832695722579956 0.19480103254318237 0.7934322357177734 -0.0016960800858214498 -1.0027235746383667 -0.3011159300804138  738318.7128029325
-0.49868226051330566 0.1937362104654312 0.7935678362846375 -0.02554682269692421 -1.0543566942214966 -0.282218873500824  738318.7128030247
-0.4993313252925873 0.19315482676029205 0.7933802604675293 -0.042461540549993515 -1.0735950469970703 -0.26325154304504395  738318.7128031285
-0.4998040199279785 0.19261226058006287 0.7934890985488892 -0.06702472269535065 -0.9793248772621155 -0.22806210815906525  738318.7128031865
-0.5003136992454529 0.191998690366745 0.7935757040977478 -0.11579739302396774 -0.9524073004722595 -0.20208218693733215  738318.7128034598
-0.4964126944541931 0.19064882397651672 0.7940062284469604 -0.10898689180612564 -1.0558358430862427 -0.2062012106180191  738318.7128035749
-0.49710533022880554 0.18944565951824188 0.7933211922645569 -0.21895627677440643 -1.0524981021881104 -0.16438856720924377  738318.7128037484
-0.49749425053596497 0.18882840871810913 0.7933332324028015 -0.29348164796829224 -0.9582203030586243 -0.15311658382415771  738318.7128038292
-0.49781671166419983 0.1882079690694809 0.7933149933815002 -0.35605141520500183 -0.8910118937492371 -0.13570044934749603  738318.7128038519
-0.4984150230884552 0.18698443472385406 0.7932651042938232 -0.4340363144874573 -0.879645824432373 -0.10444331169128418  738318.7128038985
-0.4981774389743805 0.1874193400144577 0.7942870855331421 -0.4340363144874573 -0.879645824432373 -0.10444331169128418  738318.7128040597
-0.4986562728881836 0.18632158637046814 0.794305682182312 -0.5467631816864014 -0.779362142086029 -0.05712032690644264  738318.7128041063
-0.4986562728881836 0.18632158637046814 0.794305682182312 -0.5467631816864014 -0.779362142086029 -0.05712032690644264  738318.7128043136
-0.49901682138442993 0.18530461192131042 0.7942533493041992 -0.5673297047615051 -0.678979218006134 -0.025737544521689415  738318.7128044406
-0.4990254044532776 0.18530501425266266 0.7926129102706909 -0.5673297047615051 -0.678979218006134 -0.025737544521689415  738318.7128044522
-0.4955662190914154 0.18362250924110413 0.7928053140640259 -0.5584665536880493 -0.6990594863891602 -0.0639347955584526  738318.7128045907
-0.4957214295864105 0.18328475952148438 0.7927001118659973 -0.5795435309410095 -0.6615012288093567 -0.05815856531262398  738318.7128047755
-0.49587196111679077 0.18240684270858765 0.7926021814346313 -0.6168204545974731 -0.5877041220664978 -0.0485282801091671  738318.7128049716
-0.4959716200828552 0.18227100372314453 0.7919254302978516 -0.6385279297828674 -0.5711135864257812 -0.03145844116806984  738318.7128050065
-0.49598535895347595 0.18139207363128662 0.7918170094490051 -0.6394047141075134 -0.5793537497520447 -0.03620786964893341  738318.7128051217
-0.4960687756538391 0.18086884915828705 0.791716456413269 -0.6834849715232849 -0.5461429357528687 -0.025686828419566154  738318.7128052602
-0.4960072934627533 0.18041954934597015 0.7916193008422852 -0.683912992477417 -0.5335294008255005 -0.010748648084700108  738318.7128053757
-0.4960670471191406 0.17992167174816132 0.7915318012237549 -0.7502405047416687 -0.51637202501297 -0.0033929026685655117  738318.7128054565
-0.4930287301540375 0.1788659691810608 0.7915517687797546 -0.792122483253479 -0.4435262978076935 0.030140582472085953  738318.712805491
-0.49298813939094543 0.17764265835285187 0.791420042514801 -0.8638037443161011 -0.3576500415802002 0.03466194123029709  738318.7128057104
-0.49296125769615173 0.17719726264476776 0.7919382452964783 -0.8937522172927856 -0.3210136294364929 0.03515032306313515  738318.7128059183
-0.4929433763027191 0.17643597722053528 0.7919087409973145 -0.9135319590568542 -0.29959550499916077 0.040702804923057556  738318.712806011
-0.49290814995765686 0.17600810527801514 0.7918888330459595 -0.9412930607795715 -0.21849410235881805 0.04393963888287544  738318.7128061261
-0.49267488718032837 0.17548353970050812 0.7918909788131714 -0.9399309754371643 -0.1555900126695633 0.04886879399418831  738318.7128061721
-0.49257713556289673 0.17524345219135284 0.7919023633003235 -0.8673348426818848 -0.17891870439052582 0.051070503890514374  738318.7128064954
-0.49251317977905273 0.17514227330684662 0.7935069799423218 -0.8556732535362244 -0.14627549052238464 0.054117005318403244  738318.7128066339
-0.49242833256721497 0.17447799444198608 0.79361492395401 -0.8084603548049927 -0.14864809811115265 0.0625193864107132  738318.7128067502
-0.4892919659614563 0.1750592589378357 0.7941100001335144 -0.8686670660972595 -0.12560388445854187 0.03049885481595993  738318.7128067848
-0.4891864061355591 0.1747618019580841 0.7942159175872803 -0.8993836641311646 -0.14809556305408478 0.024836767464876175  738318.7128069695
-0.48918071389198303 0.1745562106370926 0.7941458821296692 -0.9108485579490662 -0.14586828649044037 0.024950744584202766  738318.7128071889
-0.48910316824913025 0.17439815402030945 0.7941937446594238 -0.9604347944259644 -0.110015369951725 0.031038939952850342  738318.7128073158
-0.48893627524375916 0.17408443987369537 0.7942251563072205 -0.9740192890167236 -0.08530981838703156 0.026838449761271477  738318.712807362
-0.48882490396499634 0.17385278642177582 0.794224202632904 -1.0105972290039062 -0.021367836743593216 0.03785894066095352  738318.7128074429
-0.4887547492980957 0.17332857847213745 0.7944411039352417 -0.9527959823608398 -0.014123041182756424 0.02851790003478527  738318.7128077314
-0.4886471927165985 0.17314372956752777 0.7944140434265137 -0.8757593631744385 0.01686798967421055 0.03569306060671806  738318.7128079099
-0.4883308708667755 0.17296145856380463 0.7943700551986694 -0.7956720590591431 0.004148818552494049 0.04439852014183998  738318.712807933
-0.48467037081718445 0.17377257347106934 0.7944748997688293 -0.7214494347572327 0.049455855041742325 0.021602772176265717  738318.7128079791
-0.4843748211860657 0.17371268570423126 0.7943729162216187 -0.6155408024787903 0.0687844380736351 0.020271070301532745  738318.7128082908
-0.4841383695602417 0.17370525002479553 0.7942924499511719 -0.5596063137054443 0.04719800502061844 0.018028607591986656  738318.7128084067
-0.4838846027851105 0.17367932200431824 0.7955909371376038 -0.5604761242866516 0.03888397663831711 0.01580682024359703  738318.712808487
-0.48365238308906555 0.17343832552433014 0.7954119443893433 -0.5674071311950684 -0.004356193356215954 0.0009067713399417698  738318.7128087641
-0.483477383852005 0.1734798401594162 0.7952609658241272 -0.585661768913269 0.013317626900970936 0.0010345139307901263  738318.7128089604
-0.48325997591018677 0.17351482808589935 0.7950899600982666 -0.5305600762367249 0.006652457173913717 -0.00861515011638403  738318.7128090872
-0.4794132113456726 0.17410226166248322 0.7935909032821655 -0.3077372610569 0.0848083645105362 0.021607963368296623  738318.7128093991
-0.4790957272052765 0.17379440367221832 0.7933394312858582 -0.22216665744781494 0.11550852656364441 0.012474884279072285  738318.7128096416
-0.4785892963409424 0.17382794618606567 0.7911845445632935 -0.09722909331321716 0.09724141657352448 -0.002077792538329959  738318.7128096996
-0.4789241552352905 0.1738046258687973 0.7908110022544861 -0.01348391454666853 0.10795468091964722 -0.003934080712497234  738318.7128097749
-0.4783172905445099 0.17401570081710815 0.7904214859008789 0.06722737103700638 0.11708012223243713 -0.012641198001801968  738318.7128099597
-0.4781835079193115 0.17398512363433838 0.7900237441062927 0.15009675920009613 0.08106233924627304 -0.018222929909825325  738318.712810133
-0.47769662737846375 0.173969104886055 0.7882858514785767 0.20768694579601288 0.04186846688389778 -0.032484304159879684  738318.7128103176
-0.47747424244880676 0.17433224618434906 0.7877990007400513 0.24934865534305573 -0.009787485003471375 -0.04106200858950615  738318.7128105027
-0.47361668944358826 0.17491735517978668 0.7868538498878479 0.3027234673500061 -0.09711392223834991 -0.03661315515637398  738318.7128107102
-0.4733743667602539 0.17494472861289978 0.7866331934928894 0.332797110080719 -0.10333247482776642 -0.028053749352693558  738318.7128108491
-0.47299695014953613 0.1748940348625183 0.7862382531166077 0.3300310969352722 -0.07833407819271088 -0.03031269833445549  738318.7128109295
-0.4727465808391571 0.17490676045417786 0.7858519554138184 0.3479527235031128 -0.07306601852178574 -0.02966225892305374  738318.7128111373
-0.47239115834236145 0.17476855218410492 0.7854778170585632 0.4210939109325409 -0.06809279322624207 -0.031105082482099533  738318.7128114129
-0.4721333980560303 0.17476631700992584 0.7862003445625305 0.47213396430015564 -0.03584275394678116 -0.017173802480101585  738318.712811436
-0.47187596559524536 0.17475351691246033 0.7859361171722412 0.5232681035995483 0.03231458738446236 -0.015099848620593548  738318.7128115976
-0.47164809703826904 0.17405758798122406 0.785705029964447 0.6109307408332825 0.07021920382976532 -0.014294151216745377  738318.712811644
-0.47139260172843933 0.1740029901266098 0.7855032682418823 0.7044727206230164 0.06917158514261246 0.0014262387994676828  738318.712811863
-0.4677310287952423 0.17471693456172943 0.7857452034950256 0.7807483673095703 0.06976182758808136 0.024604471400380135  738318.7128119785
-0.466492235660553 0.17423808574676514 0.7849269509315491 0.8837485909461975 -0.04310057684779167 0.03562099486589432  738318.7128122213
-0.4659649729728699 0.17435459792613983 0.784698486328125 0.8980798721313477 -0.0753459483385086 0.02906866930425167  738318.7128124057
-0.46564218401908875 0.17423264682292938 0.7846289873123169 0.8843256831169128 -0.11244094371795654 0.03801760822534561  738318.7128125441
-0.46531808376312256 0.17409595847129822 0.7843664288520813 0.8156562447547913 -0.12334848940372467 0.034218404442071915  738318.7128126608
-0.4649920165538788 0.17394506931304932 0.784078061580658 0.764965295791626 -0.15376636385917664 0.03421222046017647  738318.7128128456
-0.46417340636253357 0.17450840771198273 0.7837850451469421 0.6808037757873535 -0.15679088234901428 0.03540964052081108  738318.7128128917
-0.4609801769256592 0.17479203641414642 0.7835233807563782 0.657407283782959 -0.11626255512237549 0.02007424272596836  738318.7128130995
-0.46032336354255676 0.17438799142837524 0.782962441444397 0.6425116062164307 -0.07746509462594986 0.02337116189301014  738318.7128134458
-0.45994871854782104 0.17420051991939545 0.7827000021934509 0.6859616041183472 -0.07683996111154556 0.009530631825327873  738318.7128135612
-0.45919638872146606 0.17379188537597656 0.7817092537879944 0.7357980012893677 -0.0658549964427948 0.01167769730091095  738318.712813698
-0.45819294452667236 0.17319339513778687 0.7811180949211121 0.7886562943458557 -0.05922752246260643 0.013267206028103828  738318.7128138021
-0.4578041732311249 0.17293952405452728 0.7808287143707275 0.8505774736404419 -0.07266680896282196 0.02324759028851986  738318.7128138483
-0.45741793513298035 0.17267964780330658 0.7788068056106567 0.89015793800354 -0.10702931135892868 0.029445257037878036  738318.7128139636
-0.45292505621910095 0.1738491952419281 0.7787641882896423 0.7536179423332214 -0.2967669367790222 -0.03202749416232109  738318.7128141369
-0.45240941643714905 0.17361867427825928 0.7784636616706848 0.7186124920845032 -0.33514314889907837 -0.034794364124536514  738318.7128142985
-0.45188814401626587 0.17337514460086823 0.7781968116760254 0.6253176331520081 -0.3082638084888458 -0.0368192158639431  738318.7128144254
-0.4513612687587738 0.17311985790729523 0.7779552936553955 0.5969918966293335 -0.28915536403656006 -0.0376218818128109  738318.7128146333
-0.45225176215171814 0.17602287232875824 0.776967465877533 0.48376157879829407 -0.23861117660999298 -0.04329772666096687  738318.7128147602
-0.4517255425453186 0.17587587237358093 0.7767332792282104 0.44082483649253845 -0.18287760019302368 -0.035625725984573364  738318.7128147832
-0.4511510133743286 0.1757221668958664 0.7765401005744934 0.4212249517440796 -0.15328103303909302 -0.04526328667998314  738318.7128149795
-0.4505431056022644 0.1754789799451828 0.7763541340827942 0.40062418580055237 -0.08309709280729294 -0.03873058035969734  738318.7128153259
-0.4500662088394165 0.17486605048179626 0.775328516960144 0.42343324422836304 -0.06917504966259003 -0.03359190747141838  738318.712815522
-0.44944989681243896 0.17532995343208313 0.775139570236206 0.4716978073120117 -0.05762876942753792 -0.028224291279911995  738318.7128157183
-0.4454820454120636 0.17452843487262726 0.7752881050109863 0.5780661702156067 0.059639621526002884 0.07124556601047516  738318.7128159144
-0.4444068670272827 0.17412862181663513 0.774215817451477 0.6565077900886536 0.019852984696626663 0.07187824696302414  738318.7128160755
-0.44367268681526184 0.1739136427640915 0.7740936279296875 0.6638423800468445 -0.018603157252073288 0.06977237015962601  738318.7128162144
-0.4431287944316864 0.1736825555562973 0.7740079164505005 0.6504936814308167 -0.01792641170322895 0.06629128754138947  738318.7128163179
-0.4426843822002411 0.17304886877536774 0.7739526629447937 0.6249298453330994 -0.004103164654225111 0.06871809810400009  738318.7128164564
-0.44214165210723877 0.17276203632354736 0.7758888602256775 0.5841807723045349 0.03897864744067192 0.0740334540605545  738318.7128165257
-0.441601037979126 0.1724829077720642 0.7759928107261658 0.5493260622024536 0.056239839643239975 0.06924159824848175  738318.7128166301
-0.4408152401447296 0.17208418250083923 0.7763105034828186 0.45046642422676086 0.0926707535982132 0.06109962612390518  738318.7128168268
-0.43733954429626465 0.1709737926721573 0.7751539349555969 0.4367244243621826 0.14452122151851654 0.14440901577472687  738318.7128169882
-0.4360758066177368 0.17001865804195404 0.7754763960838318 0.45003148913383484 0.25280630588531494 0.14388485252857208  738318.7128170807
