% x y z r p yw  738339.4157601102
1.2931772470474243 1.4266870021820068 -0.01924160309135914 -0.1701640784740448 0.26071712374687195 -0.23105597496032715  738339.4157661353
1.2923227548599243 1.4318904876708984 -0.019330667331814766 -0.16224515438079834 0.2636830508708954 -0.22993487119674683  738339.4157662508
1.2914586067199707 1.4371068477630615 -0.01941928267478943 -0.1641686111688614 0.27131977677345276 -0.2252238243818283  738339.4157663655
1.2905915975570679 1.4423367977142334 -0.019509313628077507 -0.16452112793922424 0.2784727215766907 -0.22649885714054108  738339.4157664807
1.2897274494171143 1.4475762844085693 -0.019599543884396553 -0.16472697257995605 0.27165889739990234 -0.2233269214630127  738339.4157666024
1.2888630628585815 1.4528231620788574 -0.01968725584447384 -0.1601341962814331 0.2653973400592804 -0.22401997447013855  738339.4157667189
1.2879935503005981 1.4580808877944946 -0.01977280154824257 -0.15810517966747284 0.2669946849346161 -0.22206629812717438  738339.4157668217
1.2871192693710327 1.4633526802062988 -0.019860045984387398 -0.16086721420288086 0.2704865038394928 -0.2206040918827057  738339.4157669607
1.2862451076507568 1.4686365127563477 -0.019949350506067276 -0.16389480233192444 0.27041587233543396 -0.22067776322364807  738339.415767054
1.2853724956512451 1.4739289283752441 -0.020036332309246063 -0.16202861070632935 0.26693597435951233 -0.21944895386695862  738339.4157671692
1.2844980955123901 1.4792301654815674 -0.02012077532708645 -0.15828675031661987 0.2655746340751648 -0.22018694877624512  738339.4157672896
0.053544092923402786 0.0183749757707119 0.01891479641199112 0.2747266888618469 1.0093024969100952 14.129179000854492  738339.4157674727
0.04714560508728027 0.017835455015301704 0.01876821182668209 0.40803033113479614 1.0982340574264526 14.145096778869629  738339.4157675289
0.0408586710691452 0.01749967224895954 0.0186274703592062 0.5622190237045288 1.314483404159546 14.23234748840332  738339.4157676451
0.034467604011297226 0.01693657971918583 0.0184851735830307 -0.4969407916069031 0.18662811815738678 13.954971313476562  738339.4157677483
0.027793584391474724 0.01608419418334961 0.01844760589301586 0.4656635522842407 0.5716742277145386 14.186800003051758  738339.4157678632
0.021042292937636375 0.015195053070783615 0.018371956422924995 0.5730730891227722 1.3342573642730713 14.247995376586914  738339.4157679805
0.014398910105228424 0.014329907484352589 0.018103914335370064 0.5896223783493042 0.909553587436676 14.182670593261719  738339.4157680961
0.007394947577267885 0.013749431818723679 0.017795953899621964 0.879039466381073 1.311440110206604 14.184647560119629  738339.4157682145
0.0011962158605456352 0.013516603969037533 0.01769426465034485 0.26574084162712097 0.7921665906906128 14.205552101135254  738339.4157683286
-0.005119445733726025 0.013201607391238213 0.01775013655424118 0.1724853664636612 0.6079339385032654 13.995538711547852  738339.4157685036
0.04568447917699814 0.012423284351825714 0.01871119998395443 0.574185848236084 0.6317376494407654 14.869505882263184  738339.415768561
0.0439743809401989 0.010959191247820854 0.018596671521663666 1.0765286684036255 1.0917569398880005 15.070268630981445  738339.4157686863
0.04230435937643051 0.009382610209286213 0.018279630690813065 1.1297662258148193 0.969030499458313 14.989500045776367  738339.4157687895
0.04069468751549721 0.007891415618360043 0.0180965606123209 0.9288821816444397 0.7047591805458069 14.97420883178711  738339.415768915
0.039125941693782806 0.006595108658075333 0.01821969822049141 0.851876974105835 0.7100862860679626 15.036703109741211  738339.415769024
0.037533633410930634 0.005316547583788633 0.01837564818561077 0.6099374890327454 0.4885352849960327 14.957493782043457  738339.4157691407
0.03589445352554321 0.0039596701972186565 0.01833932287991047 0.6192531585693359 0.5135141611099243 14.968003273010254  738339.415769255
0.03419756516814232 0.002536941086873412 0.018131263554096222 0.782406747341156 0.6974481344223022 14.906515121459961  738339.4157693706
0.03243909776210785 0.001017499016597867 0.01786579191684723 0.9302560091018677 0.857360303401947 14.896790504455566  738339.4157694941
0.030666278675198555 -0.000562861212529242 0.017662983387708664 1.1589967012405396 0.9723403453826904 14.895058631896973  738339.4157696061
0.02894064411520958 -0.002113715745508671 0.017569955438375473 1.2019503116607666 0.9399960041046143 14.871061325073242  738339.4157697828
0.04804394394159317 0.01544024609029293 0.01848963461816311 0.9949887990951538 0.836829662322998 15.23396110534668  738339.415769823
0.04746827483177185 0.015149061568081379 0.018496958538889885 0.886813223361969 0.7349854707717896 15.195671081542969  738339.4157699497
0.04683749005198479 0.014782998710870743 0.01844576746225357 0.8937751054763794 0.7530433535575867 15.173927307128906  738339.4157700688
0.0461408831179142 0.01430934015661478 0.018353205174207687 1.0359296798706055 0.7322142124176025 15.17419147491455  738339.4157701917
0.04543323814868927 0.013798684813082218 0.01824059709906578 1.1821764707565308 0.7267013788223267 15.144454956054688  738339.415770295
0.04475140944123268 0.013328124769032001 0.018149062991142273 1.1805486679077148 0.6834299564361572 15.124822616577148  738339.4157704113
0.04406706243753433 0.012900544330477715 0.018122512847185135 1.1145509481430054 0.6334271430969238 15.104819297790527  738339.4157705264
0.043356411159038544 0.012452843599021435 0.01813359744846821 1.0757181644439697 0.6299883723258972 15.076221466064453  738339.4157706458
0.04262262582778931 0.011946765705943108 0.018109634518623352 1.1190396547317505 0.6465281248092651 15.073366165161133  738339.4157707926
0.04893465340137482 0.01569797657430172 0.018497446551918983 1.1813417673110962 0.7714030742645264 15.281712532043457  738339.4157708973
0.04844443500041962 0.015355650335550308 0.018467459827661514 1.1386994123458862 0.8321008682250977 15.279067039489746  738339.4157709938
0.04793991148471832 0.015043700113892555 0.01850038580596447 1.0334357023239136 0.8599370718002319 15.278861045837402  738339.4157711037
0.047426607459783554 0.014726771973073483 0.01854724809527397 0.9703282117843628 0.8413399457931519 15.25389289855957  738339.4157712199
0.046902917325496674 0.014360247179865837 0.018539955839514732 0.9701740741729736 0.8404066562652588 15.23922348022461  738339.4157713352
0.046347007155418396 0.013947046361863613 0.01849331706762314 0.9872373938560486 0.892928421497345 15.228038787841797  738339.4157714498
0.04575226828455925 0.013530311174690723 0.0184701606631279 0.9599810242652893 0.9677256941795349 15.209612846374512  738339.4157715648
0.04514782875776291 0.01313365250825882 0.018480192869901657 0.8967229127883911 0.9891836047172546 15.199058532714844  738339.4157716847
0.04454052820801735 0.012732499279081821 0.018500017002224922 0.7799721956253052 1.0381741523742676 15.150803565979004  738339.4157718014
0.043874457478523254 0.012303304858505726 0.018574532121419907 0.5271682143211365 1.342992901802063 15.096940040588379  738339.4157719243
0.04308914393186569 0.011924805119633675 0.018785452470183372 0.05740995705127716 1.8221466541290283 15.23992919921875  738339.4157720942
0.04922863841056824 0.015794729813933372 0.01934528350830078 -0.5271956324577332 2.2013566493988037 15.648152351379395  738339.4157721428
0.0485013872385025 0.01598755270242691 0.019802596420049667 -1.2881890535354614 2.5312905311584473 16.058626174926758  738339.415772265
0.04780809208750725 0.016239024698734283 0.020260978490114212 -2.300211191177368 2.662839651107788 16.43100929260254  738339.4157723731
0.04726097360253334 0.01637955754995346 0.020684506744146347 -3.3712570667266846 2.41279673576355 16.627445220947266  738339.4157724943
0.04690185934305191 0.016391905024647713 0.02107883058488369 -4.406851291656494 1.8913747072219849 16.728849411010742  738339.4157726079
0.04667354002594948 0.016288459300994873 0.02147303707897663 -5.300138473510742 1.393449306488037 16.842361450195312  738339.4157727243
0.046439483761787415 0.016073737293481827 0.02192152664065361 -6.198304176330566 1.171291470527649 17.05682373046875  738339.4157728385
0.04617245867848396 0.015817532315850258 0.022497938945889473 -7.374598503112793 1.082270622253418 17.43673324584961  738339.415772957
0.0459914430975914 0.015591994859278202 0.02325902320444584 -8.710318565368652 0.7485229969024658 17.77998161315918  738339.4157730731
0.04893733561038971 0.018665054813027382 0.02428174577653408 -9.535553932189941 0.32461366057395935 18.09254264831543  738339.4157731909
0.049078647047281265 0.018205488100647926 0.02549693174660206 -11.380748748779297 -0.31809455156326294 18.489595413208008  738339.4157732922
0.0492372028529644 0.017617780715227127 0.026955164968967438 -13.322237014770508 -0.6897269487380981 18.992584228515625  738339.4157734087
0.04939395934343338 0.016857145354151726 0.02861287258565426 -15.820237159729004 -0.9864300489425659 19.666486740112305  738339.4157735268
0.04956969618797302 0.0158977173268795 0.030455753207206726 -18.65570640563965 -1.02880859375 20.492189407348633  738339.4157736413
0.04985704645514488 0.014772890135645866 0.032514363527297974 -21.714519500732422 -1.0379425287246704 21.249845504760742  738339.4157737629
0.05036164075136185 0.013522476889193058 0.0348237082362175 -25.140018463134766 -1.2839200496673584 21.686235427856445  738339.4157738824
0.051123108714818954 0.012228334322571754 0.0374382808804512 -28.90004539489746 -1.760543942451477 21.575929641723633  738339.4157739874
0.05215869098901749 0.011008580215275288 0.04044365510344505 -32.7353515625 -2.0816338062286377 20.896005630493164  738339.4157741156
0.053540270775556564 0.009959123097360134 0.04395529627799988 -36.410911560058594 -2.118356704711914 19.665332794189453  738339.4157742884
0.06018555909395218 0.014690919779241085 0.04442888870835304 -37.465553283691406 -2.718311309814453 18.594337463378906  738339.4157743467
0.06311988085508347 0.01342951599508524 0.049140989780426025 -40.6740608215332 -2.248469829559326 16.245664596557617  738339.4157744522
0.06643345952033997 0.012279896065592766 0.054679833352565765 -43.27939224243164 -1.4986339807510376 13.398303985595703  738339.4157745771
0.06999330222606659 0.01117765624076128 0.061103884130716324 -45.088340759277344 -0.5255756974220276 10.216675758361816  738339.4157746924
0.07366551458835602 0.010006311349570751 0.06845078617334366 -46.2190055847168 0.3472224175930023 6.817292213439941  738339.4157748
0.07731394469738007 0.008593963459134102 0.07672709971666336 -46.79528045654297 0.9234305620193481 3.462205648422241  738339.4157749249
0.08077574521303177 0.006755440961569548 0.08590080589056015 -47.12643051147461 0.955573320388794 0.36877670884132385  738339.4157750428
0.08389037847518921 0.004331735894083977 0.09590563923120499 -47.460533142089844 0.21433299779891968 -2.330622911453247  738339.4157751568
0.08653979003429413 0.0011901890393346548 0.10668519884347916 -48.11205291748047 -1.2580671310424805 -4.57279109954834  738339.4157752696
0.08869041502475739 -0.0027505538892000914 0.11822096258401871 -49.50536346435547 -3.258173942565918 -6.324983596801758  738339.4157753849
0.09045504778623581 -0.007510630413889885 0.13050448894500732 -51.60335922241211 -5.678900241851807 -7.611664772033691  738339.4157756136
0.09201156347990036 -0.013012921437621117 0.1434960812330246 -54.05878829956055 -8.144023895263672 -8.548203468322754  738339.4157756394
0.08729158341884613 0.006525448523461819 0.14729055762290955 -55.88937759399414 -10.015654563903809 -6.281433582305908  738339.415775735
0.08860401064157486 0.00038627395406365395 0.16114114224910736 -57.50154113769531 -11.287160873413086 -6.7086992263793945  738339.4157758404
0.09000181406736374 -0.006000878755003214 0.17532388865947723 -58.2740364074707 -11.720680236816406 -6.590865612030029  738339.4157759623
0.09150547534227371 -0.012575527653098106 0.1898641288280487 -58.48404312133789 -11.550557136535645 -6.142581939697266  738339.4157760766
0.09305904805660248 -0.019390949979424477 0.20488768815994263 -58.28995895385742 -10.859572410583496 -5.311788082122803  738339.4157761921
0.0946439877152443 -0.02651892602443695 0.2205466628074646 -58.16385269165039 -10.07642936706543 -4.206000328063965  738339.4157763058
0.09628008306026459 -0.03394957631826401 0.237014502286911 -58.38270568847656 -9.69919204711914 -3.0202295780181885  738339.41577643
0.09792054444551468 -0.04158515855669975 0.2544463276863098 -58.86656188964844 -10.015618324279785 -2.1476099491119385  738339.4157765735
0.0952569767832756 -0.019080620259046555 0.2790396809577942 -60.460140228271484 -10.234972953796387 -1.3593908548355103  738339.4157766511
0.0959809422492981 -0.02555210329592228 0.2989000976085663 -60.79776382446289 -11.751873970031738 -1.3275429010391235  738339.4157767768
0.0963510200381279 -0.03200138360261917 0.31982582807540894 -60.60761260986328 -13.566210746765137 -1.4409772157669067  738339.4157768918
0.09634963423013687 -0.03853798657655716 0.3417426347732544 -59.93414306640625 -15.608786582946777 -1.4528188705444336  738339.4157770079
0.0960114374756813 -0.04536230117082596 0.36452776193618774 -58.97557067871094 -17.914962768554688 -1.2317726612091064  738339.4157771153
0.09541897475719452 -0.05267926678061485 0.38803207874298096 -58.14762878417969 -20.51744270324707 -0.6472946405410767  738339.415777242
0.09476665407419205 -0.06061068922281265 0.4121089577674866 -57.5091667175293 -23.269865036010742 0.5012872815132141  738339.4157773409
0.0942596048116684 -0.06914766877889633 0.4366067051887512 -56.83580017089844 -25.967952728271484 2.4376838207244873  738339.4157774601
0.0940031185746193 -0.07819334417581558 0.4613511562347412 -55.647891998291016 -28.372827529907227 5.2230544090271  738339.4157775743
0.0940111055970192 -0.08760913461446762 0.48618555068969727 -53.68781280517578 -30.2053279876709 8.740398406982422  738339.41577769
0.09426060318946838 -0.0982329249382019 0.5135148167610168 -50.826637268066406 -31.478321075439453 12.931018829345703  738339.4157778393
0.08117447793483734 -0.06357990950345993 0.5307658314704895 -49.999420166015625 -30.13572120666504 16.85711669921875  738339.4157779261
0.07981304079294205 -0.07159791886806488 0.5551034808158875 -47.17376708984375 -30.70539665222168 20.115219116210938  738339.415778053
0.07844164222478867 -0.07930608838796616 0.578708291053772 -44.722774505615234 -31.289634704589844 22.794462203979492  738339.415778157
0.07706137746572495 -0.08674774318933487 0.6015504002571106 -42.78346633911133 -31.885807037353516 25.063037872314453  738339.4157782721
0.07567155361175537 -0.09397875517606735 0.6235871315002441 -41.660552978515625 -32.66559600830078 27.035757064819336  738339.4157783852
0.07427454739809036 -0.10100580751895905 0.6448158025741577 -41.17125701904297 -33.69401168823242 28.827808380126953  738339.4157784963
0.07287448644638062 -0.10776697099208832 0.6652911305427551 -40.81944274902344 -34.877567291259766 30.665218353271484  738339.4157786206
0.07146886736154556 -0.11422751098871231 0.6850408315658569 -40.411128997802734 -36.166717529296875 32.51486587524414  738339.415778736
0.06991205364465714 -0.12098313868045807 0.7059261202812195 -39.39572525024414 -37.62859344482422 34.55664825439453  738339.4157788506
0.07126200944185257 -0.11162576079368591 0.7219816446304321 -38.123016357421875 -37.391685485839844 36.47801971435547  738339.4157789618
0.06913631409406662 -0.11720521003007889 0.7393392324447632 -36.09487533569336 -38.32889175415039 38.547672271728516  738339.415779089
0.06698548048734665 -0.12263042479753494 0.7558496594429016 -33.758331298828125 -38.95575714111328 40.80331039428711  738339.415779198
0.06480848044157028 -0.12796707451343536 0.7714561820030212 -31.284109115600586 -39.358802795410156 43.21544647216797  738339.4157793142
0.06260637193918228 -0.13322147727012634 0.7861534953117371 -28.800416946411133 -39.46467971801758 45.91896057128906  738339.4157794388
0.06038040295243263 -0.13840070366859436 0.7999361157417297 -26.118154525756836 -38.93199157714844 49.037410736083984  738339.4157795414
0.05813300237059593 -0.14348317682743073 0.812824010848999 -23.382299423217773 -37.83254623413086 52.34231948852539  738339.4157796578
0.055867597460746765 -0.14840096235275269 0.8248926401138306 -20.77865219116211 -36.45138931274414 55.496761322021484  738339.415779775
0.05358661338686943 -0.15308281779289246 0.8362367749214172 -18.601518630981445 -35.134395599365234 58.222496032714844  738339.415779891
0.05129244551062584 -0.15749165415763855 0.8469210267066956 -17.115419387817383 -34.211917877197266 60.428401947021484  738339.4157800138
0.0587797649204731 -0.14058798551559448 0.8724835515022278 -19.127443313598633 -33.42076873779297 60.611629486083984  738339.4157801305
0.0557442344725132 -0.14376811683177948 0.8820711970329285 -19.350421905517578 -33.80692672729492 61.111412048339844  738339.4157802443
0.052695341408252716 -0.1467527449131012 0.8909326791763306 -19.983366012573242 -34.717227935791016 60.46649932861328  738339.4157803523
0.049641288816928864 -0.14965492486953735 0.8989344239234924 -21.233983993530273 -36.084869384765625 58.55997085571289  738339.4157806219
0.04658874124288559 -0.15262949466705322 0.9059115052223206 -22.548038482666016 -36.78635787963867 55.965728759765625  738339.4157806578
0.04354147985577583 -0.1558024138212204 0.9117209911346436 -23.475107192993164 -35.84769821166992 53.555912017822266  738339.4157807021
0.04051130637526512 -0.15912604331970215 0.9163811206817627 -24.275924682617188 -33.63075256347656 51.724700927734375  738339.4157808237
0.037510957568883896 -0.16239531338214874 0.9201058149337769 -24.84092903137207 -30.706697463989258 50.73554229736328  738339.4157809457
0.03452974930405617 -0.1654016077518463 0.9231557846069336 -24.593204498291016 -27.427291870117188 50.57659912109375  738339.4157810436
0.03153622895479202 -0.1680065542459488 0.9257485866546631 -23.631330490112305 -24.481765747070312 50.85939025878906  738339.415781167
0.02850252017378807 -0.17017711699008942 0.927993893623352 -22.072397232055664 -22.510263442993164 51.134063720703125  738339.4157813522
0.06875733286142349 -0.16234098374843597 0.962218165397644 -21.679218292236328 -22.076778411865234 50.189117431640625  738339.4157813956
0.06615233421325684 -0.1632716804742813 0.9640471935272217 -20.105195999145508 -21.626611709594727 49.45823287963867  738339.4157815003
0.06353038549423218 -0.16409336030483246 0.9650580286979675 -19.385408401489258 -21.48256492614746 48.186771392822266  738339.4157816258
0.060901544988155365 -0.16491493582725525 0.9650710225105286 -19.685293197631836 -21.472410202026367 46.6796875  738339.4157817406
0.05827593430876732 -0.1657857447862625 0.9640201330184937 -20.610811233520508 -21.292457580566406 45.3298454284668  738339.4157818557
0.055663079023361206 -0.166685551404953 0.9619522094726562 -21.524145126342773 -20.461584091186523 44.660072326660156  738339.4157819713
0.05306628346443176 -0.16751979291439056 0.9590203166007996 -22.025497436523438 -18.847192764282227 44.71021270751953  738339.4157820761
0.05047230422496796 -0.16816945374011993 0.9554256200790405 -22.286270141601562 -16.794004440307617 44.92420196533203  738339.4157821941
0.047853026539087296 -0.16853809356689453 0.9513641595840454 -22.147092819213867 -14.315406799316406 44.715179443359375  738339.4157823932
0.09254731982946396 -0.17903202772140503 0.984430730342865 -22.709726333618164 -11.951411247253418 42.75337600708008  738339.4157824274
0.09254731982946396 -0.17903202772140503 0.984430730342865 -22.709726333618164 -11.951411247253418 42.75337600708008  738339.415782546
0.09057363867759705 -0.17854313552379608 0.980299711227417 -22.936616897583008 -8.801643371582031 41.19521713256836  738339.4157826697
0.08849260210990906 -0.1776818037033081 0.9760061502456665 -23.58121681213379 -6.272154808044434 39.15734100341797  738339.4157827739
0.08618474751710892 -0.17627081274986267 0.9720317721366882 -24.766521453857422 -7.642598628997803 37.464012145996094  738339.415782907
0.08364593982696533 -0.1742473542690277 0.9684250354766846 -26.591218948364258 -10.623961448669434 35.74578094482422  738339.4157830119
0.08097241818904877 -0.17176736891269684 0.9647358655929565 -27.61734390258789 -13.498092651367188 33.833946228027344  738339.415783129
0.07821433991193771 -0.16889232397079468 0.9607803225517273 -28.143404006958008 -15.638529777526855 31.98468780517578  738339.4157832452
0.07540860027074814 -0.16562798619270325 0.9564939737319946 -28.160842895507812 -17.091083526611328 29.785303115844727  738339.415783365
0.07258708775043488 -0.16197054088115692 0.9518526792526245 -27.801979064941406 -17.858041763305664 27.016469955444336  738339.4157834697
0.06978602707386017 -0.15788882970809937 0.946890652179718 -27.113880157470703 -18.4464111328125 23.834280014038086  738339.415783667
0.12902557849884033 -0.18683063983917236 0.9855812191963196 -25.77662467956543 -20.919273376464844 17.58110237121582  738339.4157837118
0.12902557849884033 -0.18683063983917236 0.9855812191963196 -25.77662467956543 -20.919273376464844 17.58110237121582  738339.4157838278
0.12758323550224304 -0.18232281506061554 0.9800529479980469 -25.881208419799805 -21.868789672851562 14.15128231048584  738339.4157839353
0.1260959804058075 -0.17711786925792694 0.9732492566108704 -26.42215347290039 -22.827295303344727 10.990747451782227  738339.4157840597
0.12484240531921387 -0.17218801379203796 0.9663729667663574 -27.018476486206055 -23.818309783935547 8.719154357910156  738339.4157841647
0.12369988113641739 -0.16705825924873352 0.9588543772697449 -27.555143356323242 -24.892824172973633 6.918222904205322  738339.4157842877
0.12269005179405212 -0.1617102175951004 0.9507166147232056 -27.826566696166992 -26.204504013061523 5.6578497886657715  738339.4157844018
0.12179653346538544 -0.15617626905441284 0.9418996572494507 -27.729372024536133 -27.954008102416992 4.730510234832764  738339.4157845165
0.12096991389989853 -0.1505233198404312 0.9322896599769592 -27.3886661529541 -30.038877487182617 3.8797576427459717  738339.4157846796
0.1743524670600891 -0.20161163806915283 0.9778435230255127 -27.12212371826172 -31.866764068603516 3.4766829013824463  738339.4157847485
0.17432229220867157 -0.19674165546894073 0.967389702796936 -26.654508590698242 -33.347633361816406 2.9764490127563477  738339.4157848643
0.17432191967964172 -0.1918112337589264 0.9560412168502808 -26.354806900024414 -33.815513610839844 2.89154052734375  738339.4157849795
0.1744619905948639 -0.1867317110300064 0.9439429044723511 -26.53411865234375 -33.2838134765625 3.121521472930908  738339.4157850952
0.17487233877182007 -0.18138642609119415 0.9312865138053894 -27.024734497070312 -32.146846771240234 3.4840962886810303  738339.4157852083
0.175644651055336 -0.17566582560539246 0.9182417392730713 -27.598405838012695 -31.012496948242188 3.732941150665283  738339.4157853338
0.17684082686901093 -0.16947101056575775 0.9049538373947144 -27.97466468811035 -30.375551223754883 3.6609082221984863  738339.415785445
0.17850619554519653 -0.16272510588169098 0.8915345668792725 -28.099519729614258 -30.565074920654297 3.0414862632751465  738339.4157855638
0.18065251410007477 -0.1554221212863922 0.8779943585395813 -28.12283706665039 -31.74393081665039 1.5887556076049805  738339.415785669
0.18326221406459808 -0.1476256102323532 0.8642436861991882 -28.217418670654297 -33.602657318115234 -0.7239919900894165  738339.4157857836
0.18628719449043274 -0.13944146037101746 0.8501312136650085 -28.75337028503418 -35.919551849365234 -3.689579725265503  738339.4157859617
0.23930758237838745 -0.2210645079612732 0.9209321141242981 -29.164274215698242 -38.21797561645508 -5.685516357421875  738339.4157860237
0.243708074092865 -0.21381983160972595 0.907281756401062 -30.542814254760742 -40.815589904785156 -8.586235046386719  738339.4157861385
0.24833819270133972 -0.2064267247915268 0.8928947448730469 -31.707605361938477 -43.2601318359375 -10.879290580749512  738339.4157862456
0.25317028164863586 -0.19890867173671722 0.877723217010498 -32.398284912109375 -45.68596649169922 -12.504816055297852  738339.4157863604
0.25814858078956604 -0.19129802286624908 0.8617053031921387 -32.549537658691406 -48.26136016845703 -13.688246726989746  738339.4157864877
0.26316776871681213 -0.1836465299129486 0.84475177526474 -32.400413513183594 -51.01031494140625 -14.844375610351562  738339.4157866049
0.26810508966445923 -0.17600621283054352 0.8267773389816284 -32.42924118041992 -53.84223937988281 -16.248680114746094  738339.4157867059
0.2728739082813263 -0.1684086173772812 0.8077336549758911 -33.214759826660156 -56.498348236083984 -18.192550659179688  738339.4157868251
0.2774607539176941 -0.16086049377918243 0.787621259689331 -35.23359680175781 -58.528358459472656 -20.958974838256836  738339.4157869412
0.3213764429092407 -0.2558920681476593 0.8632522821426392 -39.033443450927734 -59.905208587646484 -24.589031219482422  738339.4157870568
0.3265329897403717 -0.24987846612930298 0.8428675532341003 -42.635868072509766 -60.470176696777344 -28.28455352783203  738339.4157871783
0.33181899785995483 -0.2438386231660843 0.8215503096580505 -46.0457878112793 -60.773197174072266 -31.94767189025879  738339.415787286
0.33735066652297974 -0.23773697018623352 0.7993380427360535 -48.91789245605469 -61.23576354980469 -35.46524429321289  738339.4157874029
0.34316709637641907 -0.23156218230724335 0.7762380242347717 -51.462711334228516 -62.182491302490234 -39.13812255859375  738339.4157875284
0.34922879934310913 -0.22532816231250763 0.7522294521331787 -54.41815185546875 -63.641151428222656 -43.467830657958984  738339.415787635
0.3554641902446747 -0.21905802190303802 0.7272801995277405 -58.102481842041016 -65.35107421875 -48.48691940307617  738339.4157877496
0.3618346154689789 -0.21276433765888214 0.70136958360672 -62.66876983642578 -67.11993408203125 -54.156856536865234  738339.4157878647
0.3683626651763916 -0.20644590258598328 0.6744896769523621 -68.33341217041016 -68.84854888916016 -60.57038116455078  738339.4157879903
0.3751313388347626 -0.20009121298789978 0.6466359496116638 -75.11884307861328 -70.45486450195312 -67.9438247680664  738339.4157881057
0.4082639515399933 -0.3047589361667633 0.7382482290267944 -84.96701049804688 -72.3270263671875 -77.83863830566406  738339.4157882156
0.41638827323913574 -0.29980021715164185 0.71051025390625 -96.04535675048828 -73.36920166015625 -90.02593231201172  738339.4157883317
0.4249136447906494 -0.29481321573257446 0.6817209720611572 -109.80105590820312 -73.63186645507812 -105.64636993408203  738339.4157884471
0.4336952567100525 -0.28983965516090393 0.6518532037734985 -124.12570190429688 -72.7790298461914 -122.47769165039062  738339.4157885598
0.4425120949745178 -0.28490811586380005 0.620915949344635 -137.03562927246094 -70.86431884765625 -138.20855712890625  738339.4157886825
0.45110034942626953 -0.28001025319099426 0.5889672040939331 -147.45724487304688 -68.08246612548828 -151.463134765625  738339.4157888013
0.4592592120170593 -0.2751099765300751 0.5560891628265381 -155.198486328125 -64.72770690917969 -161.95704650878906  738339.4157889162
0.46689119935035706 -0.27016595005989075 0.5223608016967773 -160.37033081054688 -61.09154510498047 -169.97952270507812  738339.4157890294
0.4739971458911896 -0.26515036821365356 0.48783645033836365 -163.0099639892578 -57.445247650146484 -176.0521240234375  738339.415789145
0.48061296343803406 -0.2601800858974457 0.452645480632782 -163.4335479736328 -53.92397689819336 179.64637756347656  738339.415789256
0.4867169260978699 -0.2553573250770569 0.4169563949108124 -161.7252960205078 -50.91259002685547 177.02317810058594  738339.4157895154
0.4921290874481201 -0.250653475522995 0.38099777698516846 -159.09609985351562 -48.27980422973633 175.6243896484375  738339.4157895389
0.5152981877326965 -0.40914207696914673 0.5517494678497314 -158.28407287597656 -46.78107452392578 171.49468994140625  738339.4157896113
0.5199015736579895 -0.4076841473579407 0.5200673937797546 -156.91258239746094 -44.3126335144043 170.2525634765625  738339.4157897298
0.5238396525382996 -0.4062744379043579 0.48903656005859375 -156.5748291015625 -42.396484375 168.53379821777344  738339.4157898459
0.5271814465522766 -0.40497326850891113 0.4586322605609894 -156.74063110351562 -41.52741622924805 166.4806365966797  738339.4157899491
0.5299164652824402 -0.4038306474685669 0.4286245107650757 -157.08827209472656 -41.761085510253906 164.11607360839844  738339.4157900661
0.5319976210594177 -0.40284547209739685 0.3986330032348633 -157.4123077392578 -42.91277313232422 161.7562713623047  738339.4157901788
0.533391535282135 -0.4020085632801056 0.3682347536087036 -157.6651611328125 -44.23844528198242 159.65762329101562  738339.4157902983
0.5341798663139343 -0.40129876136779785 0.337105929851532 -157.87123107910156 -44.79307556152344 157.79330444335938  738339.4157904112
0.5345199108123779 -0.40064337849617004 0.30510812997817993 -157.79087829589844 -43.850563049316406 156.1621856689453  738339.4157905619
0.5344889163970947 -0.3998742699623108 0.27229735255241394 -156.7994384765625 -41.574886322021484 154.91883850097656  738339.415790643
0.5427282452583313 -0.5508335828781128 0.4359903037548065 -156.922119140625 -37.42825698852539 151.50778198242188  738339.4157907598
0.5420354008674622 -0.5518839955329895 0.40562552213668823 -154.6071319580078 -33.17621612548828 150.82852172851562  738339.4157908758
0.5407747030258179 -0.5524296760559082 0.3755963146686554 -152.1417999267578 -29.02231216430664 150.50955200195312  738339.4157909926
0.5390861630439758 -0.5524314045906067 0.3465133309364319 -149.49037170410156 -25.678722381591797 150.77899169921875  738339.4157910967
0.5372939109802246 -0.5519657731056213 0.31887286901474 -147.08840942382812 -23.200834274291992 151.3794708251953  738339.4157912239
0.5357205867767334 -0.5512170791625977 0.2929798364639282 -145.727783203125 -21.42722511291504 151.7469024658203  738339.4157913382
0.5345364212989807 -0.5504032969474792 0.2689390182495117 -144.93170166015625 -21.127933502197266 152.1500244140625  738339.4157914512
0.5337074398994446 -0.5496673583984375 0.2466059923171997 -144.79562377929688 -22.238391876220703 152.32821655273438  738339.4157915679
0.5330475568771362 -0.5490943789482117 0.2255982756614685 -145.10519409179688 -24.292028427124023 151.95587158203125  738339.4157917723
0.5366316437721252 -0.6878392100334167 0.4036245048046112 -146.15438842773438 -24.723209381103516 148.040771484375  738339.4157918037
0.5361644625663757 -0.6902627348899841 0.3872544765472412 -146.661376953125 -26.54989242553711 146.42758178710938  738339.4157919191
0.5356117486953735 -0.6927247643470764 0.37096792459487915 -147.0248565673828 -27.561744689941406 144.7241668701172  738339.4157920349
0.5349889993667603 -0.6950907707214355 0.3546395003795624 -147.1544647216797 -27.740026473999023 143.21575927734375  738339.4157921484
0.5343023538589478 -0.6972471475601196 0.33828026056289673 -147.06106567382812 -27.233572006225586 141.894775390625  738339.4157922716
0.533545196056366 -0.6990566253662109 0.32203197479248047 -146.89244079589844 -26.254337310791016 140.6407012939453  738339.4157923763
0.5327339172363281 -0.7004082798957825 0.30608657002449036 -146.82662963867188 -24.99846839904785 139.39816284179688  738339.4157924947
0.5318962335586548 -0.7012409567832947 0.2906239330768585 -146.8999481201172 -23.872966766357422 138.35202026367188  738339.41579261
0.5310454368591309 -0.7015101313591003 0.27578067779541016 -147.00711059570312 -23.31528091430664 137.61892700195312  738339.4157927489
0.5334101319313049 -0.8273226618766785 0.4411400556564331 -148.9381103515625 -22.666202545166016 134.39186096191406  738339.4157928396
0.5321782827377319 -0.8293792605400085 0.4306965470314026 -149.54281616210938 -23.163835525512695 133.8781280517578  738339.4157929586
0.5308502316474915 -0.8311386108398438 0.4208585321903229 -150.7052764892578 -23.74057388305664 133.17857360839844  738339.4157930714
0.529379665851593 -0.8327026963233948 0.411482572555542 -151.86097717285156 -24.56412124633789 132.53915405273438  738339.4157931914
0.5277261734008789 -0.8341668844223022 0.40243008732795715 -152.86117553710938 -25.54142189025879 131.9257049560547  738339.4157933055
0.5258687734603882 -0.8356250524520874 0.3935891389846802 -153.8958282470703 -26.433013916015625 131.1304931640625  738339.4157934262
0.523804247379303 -0.8371405005455017 0.38485270738601685 -155.1284637451172 -27.219013214111328 130.0764617919922  738339.4157935316
0.5215315222740173 -0.8387321829795837 0.37608060240745544 -156.50790405273438 -28.000890731811523 128.7993927001953  738339.4157936551
0.5190509557723999 -0.8403767943382263 0.3671080768108368 -157.82012939453125 -28.820968627929688 127.40296173095703  738339.4157937649
0.5163817405700684 -0.8420352339744568 0.3577880263328552 -158.82798767089844 -29.59236717224121 126.02337646484375  738339.4157938816
0.5135549306869507 -0.8436693549156189 0.3480350077152252 -159.4090118408203 -30.178253173828125 124.77373504638672  738339.4157940189
0.5256539583206177 -0.9569967985153198 0.513391375541687 -161.8598175048828 -28.300947189331055 120.17742919921875  738339.4157941202
0.5224066376686096 -0.9612598419189453 0.5057216286659241 -161.9542999267578 -28.20768165588379 119.32228088378906  738339.4157942325
0.5190412402153015 -0.9654595851898193 0.49783942103385925 -162.1711883544922 -27.84980583190918 118.60554504394531  738339.415794349
0.5155616998672485 -0.9696174263954163 0.4898797869682312 -162.52740478515625 -27.336301803588867 117.93124389648438  738339.4157944629
0.5119553208351135 -0.9737681746482849 0.4819778501987457 -163.0814666748047 -26.78424072265625 117.2282485961914  738339.4157945808
0.5078257918357849 -0.9783640503883362 0.4734736382961273 -163.87818908691406 -26.32451057434082 116.34799194335938  738339.4157946971
0.5039171576499939 -0.9825687408447266 0.4659493565559387 -164.7637176513672 -26.22246742248535 115.34986877441406  738339.4157948018
0.4998643398284912 -0.9867543578147888 0.4585842788219452 -165.79110717773438 -26.496736526489258 114.17093658447266  738339.4157949274
0.49569544196128845 -0.9908760786056519 0.45126938819885254 -166.9622039794922 -27.078245162963867 112.96832275390625  738339.4157950314
0.4914523661136627 -0.9949251413345337 0.44384944438934326 -167.96102905273438 -28.142454147338867 112.01908874511719  738339.4157952492
0.48714393377304077 -0.999016284942627 0.4361267685890198 -168.60719299316406 -29.47660255432129 111.37451171875  738339.4157952907
0.5056455135345459 -1.0932468175888062 0.5865145325660706 -171.2133026123047 -26.994592666625977 106.56175994873047  738339.4157953843
0.5004648566246033 -1.1010968685150146 0.5799875259399414 -171.52976989746094 -27.17752456665039 105.16328430175781  738339.4157954984
0.4950984716415405 -1.1091737747192383 0.5731945633888245 -171.85476684570312 -27.17414093017578 104.06439208984375  738339.4157956127
0.48960626125335693 -1.1173603534698486 0.566261351108551 -172.12997436523438 -26.930782318115234 103.19158172607422  738339.4157957373
0.4839518368244171 -1.125661849975586 0.5592656135559082 -172.4652557373047 -26.379005432128906 102.35145568847656  738339.415795853
0.4781234562397003 -1.134020209312439 0.5522695779800415 -172.70941162109375 -25.829666137695312 101.65911865234375  738339.4157959588
0.4721781611442566 -1.1423425674438477 0.5453265309333801 -172.7825927734375 -25.539222717285156 101.20256042480469  738339.4157960835
0.4661202132701874 -1.1506010293960571 0.5384979248046875 -172.82542419433594 -25.6917781829834 100.86479187011719  738339.4157961978
0.48208916187286377 -1.216049075126648 0.6548090577125549 -176.05616760253906 -23.53830337524414 97.5536117553711  738339.4157963054
0.4749663472175598 -1.2262316942214966 0.6497543454170227 -176.31484985351562 -24.368282318115234 97.56456756591797  738339.4157964329
0.46771547198295593 -1.236515760421753 0.644612729549408 -176.86404418945312 -25.305442810058594 97.53533172607422  738339.4157965486
0.4601909816265106 -1.2471462488174438 0.6392547488212585 -177.4296112060547 -26.384117126464844 97.1844711303711  738339.4157966556
0.4522756040096283 -1.2583417892456055 0.6335346698760986 -177.76966857910156 -27.291418075561523 96.38607788085938  738339.4157967725
0.4439336359500885 -1.2701218128204346 0.6274243593215942 -178.4510955810547 -27.59550666809082 95.20825958251953  738339.4157968926
0.4352322518825531 -1.2823505401611328 0.6210222244262695 -179.47657775878906 -27.612680435180664 93.63996887207031  738339.4157970035
0.4262905418872833 -1.2948249578475952 0.6144375205039978 179.3515167236328 -27.600370407104492 92.23006439208984  738339.4157971261
0.41718167066574097 -1.3073992729187012 0.6077573299407959 178.07125854492188 -27.55573272705078 90.96139526367188  738339.4157972301
0.4079172611236572 -1.3201066255569458 0.6009876132011414 177.00523376464844 -27.56910514831543 89.84829711914062  738339.4157973535
0.39847856760025024 -1.3330327272415161 0.5940776467323303 176.3180389404297 -27.77194595336914 88.85171508789062  738339.415797552
0.3888418972492218 -1.3462538719177246 0.5870088934898376 175.8917999267578 -28.06942367553711 87.91246795654297  738339.4157975853
0.4286079704761505 -1.3830093145370483 0.70025634765625 172.48638916015625 -24.18464469909668 84.36767578125  738339.4157977015
0.4180258512496948 -1.3984003067016602 0.6941640377044678 172.35601806640625 -24.146251678466797 83.75272369384766  738339.4157978093
0.4072839617729187 -1.4140887260437012 0.6878783106803894 172.216064453125 -23.967632293701172 83.35134887695312  738339.4157979264
0.39640408754348755 -1.430051565170288 0.681406557559967 172.04611206054688 -23.76613426208496 83.1341552734375  738339.4157980467
0.38536521792411804 -1.4462729692459106 0.6747620701789856 171.83070373535156 -23.580833435058594 83.0415267944336  738339.415798154
0.3740905225276947 -1.4628028869628906 0.6679799556732178 171.4804229736328 -23.329923629760742 82.84024810791016  738339.4157982803
0.36255207657814026 -1.479732871055603 0.660962700843811 171.42160034179688 -22.959455490112305 82.70938873291016  738339.4157983972
0.3507915139198303 -1.497119426727295 0.6535162329673767 172.1156005859375 -22.616880416870117 82.71332550048828  738339.4157985708
0.3388582468032837 -1.5149085521697998 0.645601749420166 173.48187255859375 -22.46442222595215 82.97539520263672  738339.41579863
0.38849306106567383 -1.522891640663147 0.731501579284668 171.98895263671875 -18.518884658813477 81.24605560302734  738339.41579874
0.3756903409957886 -1.5419739484786987 0.7235555648803711 174.053955078125 -18.588581085205078 82.4394760131836  738339.4157988535
0.3626371920108795 -1.5613020658493042 0.7154644727706909 175.7813262939453 -18.3216552734375 83.7710952758789  738339.4157989688
0.34922319650650024 -1.5809303522109985 0.707374095916748 176.93890380859375 -17.66647720336914 85.04639434814453  738339.4157990903
0.33536842465400696 -1.6009169816970825 0.6993996500968933 177.57501220703125 -16.81180191040039 86.10535430908203  738339.4157991987
0.3210132420063019 -1.621308445930481 0.6916026473045349 177.9110565185547 -16.077817916870117 86.87159729003906  738339.4157993223
0.3061154782772064 -1.6421241760253906 0.6840085983276367 178.14695739746094 -15.696564674377441 87.29601287841797  738339.4157994357
0.29065126180648804 -1.6633687019348145 0.6766258478164673 178.4131622314453 -15.784377098083496 87.4078140258789  738339.4157995508
0.27461308240890503 -1.6850558519363403 0.6694461703300476 178.66427612304688 -16.362197875976562 87.20525360107422  738339.4157996613
0.2580062747001648 -1.7072046995162964 0.6624265313148499 178.75938415527344 -17.281726837158203 86.70757293701172  738339.4157998741
0.2408531904220581 -1.7298177480697632 0.655471682548523 178.61329650878906 -18.32950210571289 85.95266723632812  738339.4157999152
0.32157203555107117 -1.7031093835830688 0.7329734563827515 174.91734313964844 -14.271824836730957 82.17218017578125  738339.4158000048
0.30100342631340027 -1.7293730974197388 0.7249485850334167 174.6454620361328 -15.063509941101074 81.11572265625  738339.4158001287
0.28178489208221436 -1.7537057399749756 0.717267632484436 174.65428161621094 -15.467486381530762 80.37471008300781  738339.4158002458
0.26209911704063416 -1.778437614440918 0.7091823220252991 175.0580291748047 -15.428500175476074 80.00300598144531  738339.4158003578
0.24195745587348938 -1.8035303354263306 0.7007535696029663 175.90126037597656 -14.929956436157227 80.04781341552734  738339.4158004783
0.2213456779718399 -1.828927993774414 0.6921366453170776 177.0579376220703 -14.043023109436035 80.40206146240234  738339.415800587
0.20022743940353394 -1.854567289352417 0.6835479736328125 178.2266082763672 -12.931583404541016 80.8554916381836  738339.4158007033
0.1785786747932434 -1.880411982536316 0.6752055883407593 179.13397216796875 -11.897496223449707 81.20562744140625  738339.4158008613
0.15639379620552063 -1.9064388275146484 0.6672694683074951 179.71847534179688 -11.280754089355469 81.40618896484375  738339.4158009352
0.245920792222023 -1.8467532396316528 0.7271134853363037 175.17910766601562 -5.944146633148193 78.2123031616211  738339.4158010602
0.22142556309700012 -1.8724838495254517 0.7191290259361267 174.97772216796875 -6.497089862823486 78.1353759765625  738339.4158011685
0.19623425602912903 -1.8984464406967163 0.7114297151565552 174.47471618652344 -7.574084281921387 77.9278335571289  738339.4158012834
0.17032617330551147 -1.9246339797973633 0.7038458585739136 173.73435974121094 -8.941019058227539 77.65846252441406  738339.4158014036
0.1436864137649536 -1.9510575532913208 0.6961679458618164 172.84622192382812 -10.376360893249512 77.36399841308594  738339.4158015137
0.11627217382192612 -1.9777785539627075 0.6881695985794067 171.94378662109375 -11.595422744750977 77.02880859375  738339.4158016362
0.08798010647296906 -2.004934072494507 0.6796232461929321 171.15325927734375 -12.318442344665527 76.50586700439453  738339.4158017513
0.058757975697517395 -2.032623529434204 0.670387327671051 170.68649291992188 -12.618490219116211 75.81616973876953  738339.4158018598
0.028687451034784317 -2.060781240463257 0.660478949546814 170.69422912597656 -12.806405067443848 75.24120330810547  738339.4158019726
-0.00209973007440567 -2.089282751083374 0.6500089168548584 171.19125366210938 -13.014509201049805 74.91860961914062  738339.4158021606
-0.03351534530520439 -2.1180434226989746 0.6391108632087708 171.9813690185547 -13.15199089050293 74.8456039428711  738339.4158022157
0.11211134493350983 -2.0256755352020264 0.693290650844574 167.98458862304688 -5.8631391525268555 72.44798278808594  738339.4158023173
0.07962522655725479 -2.0540668964385986 0.6797806620597839 168.58445739746094 -5.7783403396606445 72.55289459228516  738339.4158024446
0.0464448407292366 -2.0827109813690186 0.6661167740821838 169.01942443847656 -5.844968795776367 72.57777404785156  738339.4158025552
0.012565705925226212 -2.111621618270874 0.6523474454879761 169.23623657226562 -6.232846736907959 72.47696685791016  738339.4158026747
-0.021962560713291168 -2.1408324241638184 0.6383653283119202 169.34779357910156 -6.895115852355957 72.33550262451172  738339.4158027912
-0.05704203620553017 -2.1703603267669678 0.623866856098175 169.6864471435547 -7.495497703552246 72.34081268310547  738339.4158029088
-0.09263147413730621 -2.200188398361206 0.6086905002593994 170.15260314941406 -7.893453598022461 72.55470275878906  738339.4158030167
-0.12873771786689758 -2.2303080558776855 0.5930002331733704 170.4559326171875 -8.168296813964844 72.92965698242188  738339.4158031284
-0.16544869542121887 -2.260765314102173 0.5769726037979126 170.4716796875 -8.289351463317871 73.23269653320312  738339.4158032488
0.003975853323936462 -2.150977373123169 0.6206231117248535 165.01107788085938 0.4975394010543823 71.27608489990234  738339.41580336
-0.033717963844537735 -2.180971622467041 0.6001585721969604 165.29379272460938 0.27409130334854126 71.40562438964844  738339.4158034851
-0.0720708817243576 -2.2113161087036133 0.5791784524917603 165.73837280273438 -0.2079147845506668 71.51644897460938  738339.4158036005
-0.1111297607421875 -2.242060422897339 0.5577535629272461 166.1515655517578 -0.8970637917518616 71.4980239868164  738339.4158037126
-0.15094731748104095 -2.273268699645996 0.5359026193618774 166.44613647460938 -1.6137704849243164 71.31806182861328  738339.4158038292
-0.19152827560901642 -2.3049769401550293 0.5135748982429504 166.6230010986328 -2.3184244632720947 71.0533218383789  738339.4158039478
-0.23287194967269897 -2.3372104167938232 0.4907222390174866 166.61032104492188 -2.9757325649261475 70.70661163330078  738339.4158040622
-0.2749866247177124 -2.3699703216552734 0.4673170745372772 166.34735107421875 -3.563140630722046 70.31270599365234  738339.4158041743
-0.3178396224975586 -2.403244733810425 0.4433494210243225 165.91104125976562 -4.106795310974121 69.95181274414062  738339.4158042911
-0.3613760471343994 -2.4370357990264893 0.418830007314682 165.35951232910156 -4.683174133300781 69.64586639404297  738339.415804438
-0.40555834770202637 -2.471357583999634 0.39378511905670166 164.70677185058594 -5.31559944152832 69.3870849609375  738339.415804525
-0.16256669163703918 -2.3204214572906494 0.44856172800064087 157.37625122070312 4.991314888000488 68.35055541992188  738339.415804629
-0.2057139277458191 -2.3540985584259033 0.41704031825065613 156.47825622558594 4.277446746826172 68.05207061767578  738339.4158047477
-0.24953797459602356 -2.3883538246154785 0.38477933406829834 155.50344848632812 3.6922767162323 67.59075927734375  738339.4158048705
-0.2940461039543152 -2.423153877258301 0.35165029764175415 154.53140258789062 3.1286065578460693 66.88758850097656  738339.4158049843
-0.339236855506897 -2.4584805965423584 0.31764909625053406 153.7329559326172 2.3854711055755615 66.00205993652344  738339.4158051101
-0.38512948155403137 -2.4943437576293945 0.2828078866004944 153.26876831054688 1.3932198286056519 65.03055572509766  738339.4158052186
-0.4365108609199524 -2.5343923568725586 0.2434852123260498 153.1307830810547 0.004511210136115551 63.916141510009766  738339.4158053299
-0.4841408431529999 -2.5712969303131104 0.2068098932504654 153.32003784179688 -1.4871076345443726 62.944252014160156  738339.4158054496
-0.5326966643333435 -2.608663558959961 0.16930241882801056 153.6650848388672 -3.1418654918670654 62.04507827758789  738339.4158055595
-0.24154545366764069 -2.456305503845215 0.22137290239334106 145.06985473632812 8.703240394592285 63.57564926147461  738339.4158056746
-0.2856936752796173 -2.4940638542175293 0.1736242026090622 145.28436279296875 7.3231611251831055 62.527809143066406  738339.4158057951
-0.3307393789291382 -2.5324158668518066 0.12498161196708679 145.14892578125 6.154392719268799 61.50874710083008  738339.4158059136
-0.37662768363952637 -2.5713748931884766 0.07542663812637329 144.67030334472656 5.140132904052734 60.49002456665039  738339.4158060249
-0.42330217361450195 -2.61095929145813 0.024949252605438232 143.99374389648438 4.19520378112793 59.35456085205078  738339.4158061383
-0.470768004655838 -2.651158332824707 -0.02646593749523163 143.26644897460938 3.1994783878326416 58.050785064697266  738339.4158062534
-0.51908278465271 -2.6919562816619873 -0.07878867536783218 142.81686401367188 2.159820795059204 56.610721588134766  738339.415806376
-0.5682886242866516 -2.733398914337158 -0.13201653957366943 142.7924346923828 0.8641768097877502 54.9437255859375  738339.4158064907
-0.6184567809104919 -2.775573968887329 -0.18620572984218597 143.072021484375 -0.6274563074111938 53.27495193481445  738339.4158066005
-0.6696396470069885 -2.818488359451294 -0.24134686589241028 143.66317749023438 -2.2191600799560547 51.6207160949707  738339.4158067601
-0.7218312621116638 -2.862053632736206 -0.2975010573863983 144.28517150878906 -3.8838233947753906 49.91009521484375  738339.4158068416
-0.28863704204559326 -2.7094249725341797 -0.2017291635274887 132.20635986328125 9.852152824401855 56.15413284301758  738339.4158069456
