% x y z r p yw  738318.7451837617
-0.3920600116252899 0.5689335465431213 0.025809351354837418 0.19692383706569672 1.0959488153457642 -50.60915756225586  738318.7451944123
-0.39178943634033203 0.5693956017494202 0.026223033666610718 0.15374340116977692 1.2578052282333374 -51.04512405395508  738318.7451945166
-0.3915814459323883 0.5696396827697754 0.026428284123539925 0.13059161603450775 1.2429372072219849 -50.995365142822266  738318.7451946326
-0.39168524742126465 0.5697273015975952 0.026613585650920868 0.12743604183197021 1.231208324432373 -50.945167541503906  738318.7451947491
-0.39120936393737793 0.5696108937263489 0.023235362023115158 0.11102717369794846 1.2026491165161133 -50.89506530761719  738318.7451948617
-0.3922666013240814 0.5703949928283691 0.023154154419898987 0.126885324716568 1.2428232431411743 -50.846622467041016  738318.7451949806
-0.39198771119117737 0.5707495212554932 0.023157892748713493 0.10622110962867737 1.232603669166565 -50.797420501708984  738318.7451950933
-0.3923671543598175 0.5694845914840698 0.02324332669377327 0.1467256247997284 1.1829016208648682 -50.74855041503906  738318.7451952124
-0.3930967152118683 0.5678846836090088 0.025177326053380966 0.2010660022497177 1.1344648599624634 -50.700313568115234  738318.7451953241
-0.39358851313591003 0.5681480765342712 0.02525421977043152 0.20183365046977997 1.1445422172546387 -50.65140151977539  738318.7451954507
-0.39347681403160095 0.5687540769577026 0.02536073513329029 0.1765151023864746 1.1501266956329346 -50.601112365722656  738318.7451955514
-0.39376822113990784 0.5674288272857666 0.025482656434178352 0.207147479057312 1.1076207160949707 -50.5528450012207  738318.7451956854
-0.3922182619571686 0.5682597756385803 0.023284345865249634 0.1296057403087616 1.231394648551941 -50.94549560546875  738318.7451957972
-0.3930995464324951 0.5685009956359863 0.02322578616440296 0.14334391057491302 1.247097134590149 -50.89656066894531  738318.7451958959
-0.39224305748939514 0.5681135654449463 0.023272406309843063 0.1221909299492836 1.207777976989746 -50.84700393676758  738318.7451960312
-0.3934549391269684 0.5682950019836426 0.023209117352962494 0.14723140001296997 1.2283291816711426 -50.79787826538086  738318.7451961415
-0.39238959550857544 0.5679357051849365 0.02327914722263813 0.12129505723714828 1.1876243352890015 -50.74882125854492  738318.7451962515
-0.39303576946258545 0.5690895318984985 0.02591364085674286 0.10992001742124557 1.2183171510696411 -50.69778060913086  738318.7451963695
-0.3936649560928345 0.5691253542900085 0.02602258324623108 0.12068136781454086 1.2191033363342285 -50.64776611328125  738318.745196483
-0.3936689794063568 0.569294273853302 0.02615421451628208 0.11528755724430084 1.2130745649337769 -50.598262786865234  738318.7451965989
-0.39286670088768005 0.5687276124954224 0.02635098434984684 0.10281728953123093 1.173926591873169 -50.54960632324219  738318.7451967172
-0.3931959271430969 0.569159746170044 0.022733602672815323 0.10212010145187378 1.3132057189941406 -50.89680099487305  738318.7451968348
-0.392668217420578 0.5692902207374573 0.02270773984491825 0.08322197198867798 1.297253966331482 -50.84804153442383  738318.7451969469
-0.3928852677345276 0.5684276223182678 0.022690407931804657 0.10021033883094788 1.2711595296859741 -50.800045013427734  738318.7451970621
-0.39277026057243347 0.5686799883842468 0.02264556661248207 0.08932667970657349 1.2672568559646606 -50.750877380371094  738318.7451971786
-0.3936947286128998 0.5697883367538452 0.02253023162484169 0.08763431012630463 1.2990950345993042 -50.70257568359375  738318.7451972947
-0.39295291900634766 0.5692898631095886 0.02436094731092453 0.07598618417978287 1.2621567249298096 -50.65226364135742  738318.7451974123
-0.3938659727573395 0.5699045658111572 0.02437356859445572 0.08311615884304047 1.2806053161621094 -50.60304641723633  738318.7451975397
-0.3929908275604248 0.5695481896400452 0.02448643557727337 0.06825551390647888 1.2474957704544067 -50.55368423461914  738318.7451976433
-0.3934265971183777 0.5695486664772034 0.0245348010212183 0.07734042406082153 1.2462300062179565 -50.50520706176758  738318.7451978654
-0.393531858921051 0.569424569606781 0.020812131464481354 0.07990043610334396 1.2389782667160034 -50.457313537597656  738318.7451979347
-0.39180615544319153 0.5700445175170898 0.02111581712961197 0.03727258741855621 1.3501965999603271 -50.809173583984375  738318.7451979924
-0.392905592918396 0.5693284869194031 0.021023213863372803 0.07089626044034958 1.3414640426635742 -50.76013946533203  738318.7451981073
-0.393190860748291 0.5696572065353394 0.02090073749423027 0.07037415355443954 1.3389508724212646 -50.711219787597656  738318.745198217
-0.3936179280281067 0.5701562166213989 0.022414976730942726 0.06844975054264069 1.3434847593307495 -50.66278839111328  738318.7451983361
-0.393593966960907 0.5703603625297546 0.022403663024306297 0.06390103697776794 1.3364490270614624 -50.61293029785156  738318.7451984533
-0.39306333661079407 0.5696971416473389 0.02244657836854458 0.061589207500219345 1.3064690828323364 -50.564208984375  738318.7451985696
-0.393266499042511 0.5696748495101929 0.02244141325354576 0.060800544917583466 1.305735468864441 -50.51468276977539  738318.7451987019
-0.3953883647918701 0.5711814761161804 0.022307146340608597 0.07877103239297867 1.3611527681350708 -50.46620559692383  738318.7451987973
-0.3935225009918213 0.5707862377166748 0.0210863184183836 0.044180210679769516 1.3089933395385742 -50.41535186767578  738318.7451989126
-0.3948283791542053 0.5723981857299805 0.020939605310559273 0.044535305351018906 1.3509416580200195 -50.366424560546875  738318.745199099
-0.39390063285827637 0.5709632635116577 0.021020282059907913 0.047881755977869034 1.2918685674667358 -50.316650390625  738318.7451991559
-0.39117488265037537 0.568116307258606 0.021726349368691444 0.05172176659107208 1.3308045864105225 -50.708492279052734  738318.7451992556
-0.392376184463501 0.5683395862579346 0.023779476061463356 0.06973230093717575 1.3454793691635132 -50.65923309326172  738318.7451993712
-0.392560750246048 0.5685107111930847 0.02388114482164383 0.06894043833017349 1.3448415994644165 -50.61033248901367  738318.7451994921
-0.38861894607543945 0.5696035027503967 0.02407015673816204 -0.025145960971713066 1.2988340854644775 -50.56061935424805  738318.7451996015
-0.3877425193786621 0.569381833076477 0.02417823113501072 -0.03423226252198219 1.2781143188476562 -50.509857177734375  738318.7451997234
-0.38759177923202515 0.5695602893829346 0.02429019659757614 -0.03432416543364525 1.2754589319229126 -50.4595832824707  738318.7451998425
-0.3871642053127289 0.569407045841217 0.021459536626935005 -0.035430584102869034 1.2644075155258179 -50.410552978515625  738318.745199953
-0.38756510615348816 0.570007860660553 0.02142062410712242 -0.033012229949235916 1.2773163318634033 -50.362159729003906  738318.7452000711
-0.3877086341381073 0.5697473883628845 0.021404946222901344 -0.022930791601538658 1.2692620754241943 -50.31098175048828  738318.7452001966
-0.38803669810295105 0.5704243779182434 0.021861623972654343 -0.01755121350288391 1.3992385864257812 -50.676063537597656  738318.7452003026
-0.3888022005558014 0.5707889795303345 0.023850437253713608 -0.005534270312637091 1.4080754518508911 -50.62784957885742  738318.7452004212
-0.3881828486919403 0.5706275701522827 0.02397776208817959 -0.010810214094817638 1.388433575630188 -50.5784912109375  738318.7452005224
-0.3881841003894806 0.5697426199913025 0.024139776825904846 0.00446668267250061 1.3658092021942139 -50.53007888793945  738318.7452006424
-0.38781678676605225 0.5701487064361572 0.024246562272310257 -0.005318822804838419 1.3618130683898926 -50.47963333129883  738318.7452007568
-0.3887694776058197 0.5714083313941956 0.02431143820285797 -0.003980198875069618 1.3925259113311768 -50.430694580078125  738318.74520087
-0.38846272230148315 0.5710965991020203 0.02349223755300045 -0.001737429527565837 1.3754912614822388 -50.379981994628906  738318.7452009924
-0.3878341019153595 0.5704039335250854 0.023604784160852432 -0.0001663997391005978 1.3467392921447754 -50.33168029785156  738318.7452011057
-0.38894808292388916 0.5695935487747192 0.023710623383522034 0.03387726470828056 1.3432530164718628 -50.28437805175781  738318.7452013259
-0.38904449343681335 0.5698330998420715 0.023783249780535698 0.033530257642269135 1.3418045043945312 -50.2353401184082  738318.7452013484
-0.38929104804992676 0.5699426531791687 0.024637948721647263 0.04848400130867958 1.4604356288909912 -50.658626556396484  738318.7452016583
-0.38944005966186523 0.5702387690544128 0.024752149358391762 0.0477021224796772 1.4626548290252686 -50.648170471191406  738318.7452018054
-0.38960564136505127 0.5705537796020508 0.024870073422789574 0.050201449543237686 1.466902256011963 -50.65208435058594  738318.7452018285
-0.389787882566452 0.5708877444267273 0.024994388222694397 0.057403020560741425 1.454831838607788 -50.64934539794922  738318.7452019092
-0.3899867534637451 0.5712405443191528 0.025122713297605515 0.034412235021591187 1.460960865020752 -50.64768600463867  738318.7452019578
-0.3901776075363159 0.5715603232383728 0.023129437118768692 0.0466453842818737 1.4640064239501953 -50.64842987060547  738318.7452021058
-0.39040789008140564 0.5719484090805054 0.023154743015766144 0.025936245918273926 1.4315687417984009 -50.64091873168945  738318.7452021879
-0.390654593706131 0.5723555088043213 0.023193035274744034 0.05275695398449898 1.4379100799560547 -50.64470291137695  738318.7452023736
-0.39091718196868896 0.572780966758728 0.023219630122184753 0.010885017924010754 1.4343136548995972 -50.644081115722656  738318.7452024291
-0.3893932104110718 0.5634757280349731 0.025166375562548637 0.14218205213546753 1.2416423559188843 -50.631446838378906  738318.7452025362
-0.38938453793525696 0.5638676881790161 0.02564973011612892 0.08546548336744308 1.3423489332199097 -50.9528694152832  738318.7452026736
-0.3894593417644501 0.564032793045044 0.025828475132584572 0.07836171239614487 1.327104926109314 -50.92805480957031  738318.745202849
-0.38969168066978455 0.5640895366668701 0.02599605731666088 0.05903279408812523 1.2985947132110596 -50.913116455078125  738318.7452029083
-0.3895721137523651 0.5638068914413452 0.023394139483571053 0.07307034730911255 1.2683937549591064 -50.908447265625  738318.7452030182
-0.38983863592147827 0.5638148188591003 0.023484159260988235 0.10295368731021881 1.270651936531067 -50.909854888916016  738318.7452031258
-0.390383243560791 0.5641133189201355 0.023598002269864082 0.0664513036608696 1.2701832056045532 -50.91981887817383  738318.7452032536
-0.39075854420661926 0.5640983581542969 0.02367669716477394 0.02934972569346428 1.2388091087341309 -50.884178161621094  738318.7452033475
-0.39263805747032166 0.5639639496803284 0.023532208055257797 0.1434190422296524 1.303082823753357 -50.91109085083008  738318.7452034464
-0.3931269943714142 0.564187228679657 0.02537010796368122 0.15361233055591583 1.2939453125 -50.91131591796875  738318.7452036993
-0.39354732632637024 0.5644153356552124 0.025510581210255623 0.07079996168613434 1.2231550216674805 -50.861122131347656  738318.7452037851
-0.3938888907432556 0.5645555853843689 0.02566671371459961 0.08443643897771835 1.2023128271102905 -50.880794525146484  738318.74520382
-0.3934296667575836 0.5647505521774292 0.026272302493453026 -0.014369478449225426 1.344516634941101 -51.22468566894531  738318.7452039567
-0.39393630623817444 0.5651829242706299 0.026699431240558624 -0.08608553558588028 1.323548436164856 -51.187469482421875  738318.7452040619
-0.3942466676235199 0.5655131340026855 0.026873448863625526 -0.120937779545784 1.3074052333831787 -51.161434173583984  738318.7452042251
-0.3945164680480957 0.5658069849014282 0.027070708572864532 -0.0806082934141159 1.3602629899978638 -51.20600128173828  738318.7452042601
-0.3948606550693512 0.5659600496292114 0.027294622734189034 -0.1008676290512085 1.3719236850738525 -51.19389724731445  738318.7452045376
-0.3950648605823517 0.566169023513794 0.027554813772439957 -0.14905865490436554 1.2558321952819824 -51.161582946777344  738318.7452046648
-0.39581260085105896 0.5658155679702759 0.027534928172826767 -0.10720384120941162 1.2216432094573975 -51.175941467285156  738318.7452048381
-0.3958163261413574 0.5663290619850159 0.0277349054813385 -0.14803920686244965 1.2117245197296143 -51.165409088134766  738318.7452048813
-0.3964039087295532 0.5663607716560364 0.027847647666931152 -0.17920534312725067 1.163519263267517 -51.14592361450195  738318.745204929
-0.39681553840637207 0.5664852261543274 0.027964593842625618 -0.16649673879146576 1.1476037502288818 -51.159000396728516  738318.7452050602
-0.3957238793373108 0.5666307210922241 0.027965683490037918 -0.2097938060760498 1.111088752746582 -51.32229995727539  738318.7452051044
-0.3962235450744629 0.5670773983001709 0.028063027188181877 -0.2645597457885742 1.0760729312896729 -51.2862548828125  738318.7452051855
-0.39615628123283386 0.5674238204956055 0.02824637107551098 -0.3408655524253845 1.0227397680282593 -51.28178024291992  738318.7452052913
-0.39657875895500183 0.5677869319915771 0.028386861085891724 -0.3286275565624237 1.0369670391082764 -51.31135940551758  738318.7452054623
-0.3964938223361969 0.5694191455841064 0.02843330428004265 -0.37746167182922363 0.955776572227478 -51.30670166015625  738318.7452055829
-0.3962290585041046 0.569878876209259 0.02838706038892269 -0.45378243923187256 0.9102767705917358 -51.26997756958008  738318.7452057287
-0.39661598205566406 0.5698049068450928 0.028537647798657417 -0.4555322527885437 0.9731123447418213 -51.28490447998047  738318.7452057521
-0.39696004986763 0.5698153376579285 0.028714964166283607 -0.3807133734226227 0.921330988407135 -51.28229522705078  738318.7452061005
-0.39740750193595886 0.5699199438095093 0.02887820079922676 -0.3992869257926941 0.8814055919647217 -51.23555374145508  738318.7452061789
-0.3948071300983429 0.5697445869445801 0.027455810457468033 -0.37966030836105347 1.0585236549377441 -51.47552490234375  738318.7452062367
-0.3954572379589081 0.5695798993110657 0.027552783489227295 -0.2948063910007477 1.0517164468765259 -51.5014762878418  738318.745206342
-0.39587774872779846 0.5696555972099304 0.027644947171211243 -0.2873181998729706 1.051230788230896 -51.44225311279297  738318.7452064098
-0.3960287868976593 0.5702013969421387 0.027719924226403236 -0.34345319867134094 1.0387656688690186 -51.4533576965332  738318.7452064926
-0.39631691575050354 0.5702013373374939 0.027851510792970657 -0.3513089120388031 1.0568312406539917 -51.473567962646484  738318.7452066719
-0.3982817232608795 0.5716274976730347 0.027031144127249718 -0.3036417067050934 1.088690161705017 -51.434532165527344  738318.745206724
-0.396424800157547 0.572715163230896 0.02717617154121399 -0.39246541261672974 1.0004574060440063 -51.469818115234375  738318.7452068484
-0.3987441658973694 0.5720624327659607 0.027263669297099113 -0.36650988459587097 0.9798398613929749 -51.47358703613281  738318.7452069415
-0.39609482884407043 0.5713786482810974 0.027638675644993782 -0.4312712848186493 0.9095355868339539 -51.43507385253906  738318.745207106
-0.3954886794090271 0.5720916390419006 0.027403123676776886 -0.4235728681087494 0.8792521357536316 -51.443607330322266  738318.7452072437
-0.3962998390197754 0.5715449452400208 0.027447210624814034 -0.39882633090019226 0.8536697626113892 -51.46366882324219  738318.7452073016
-0.3957442343235016 0.5721131563186646 0.027717139571905136 -0.4004804491996765 1.0402072668075562 -51.61070251464844  738318.7452074285
-0.3959740400314331 0.5716782808303833 0.02787373773753643 -0.3457760512828827 1.0091278553009033 -51.58976745605469  738318.7452075097
-0.3954649865627289 0.5713971257209778 0.02766556292772293 -0.3534257113933563 0.9736615419387817 -51.56521987915039  738318.7452076022
-0.3959434926509857 0.5730778574943542 0.027694951742887497 -0.3800155222415924 0.9349610805511475 -51.5630989074707  738318.745207768
-0.3960585296154022 0.5725844502449036 0.02785295993089676 -0.3702423572540283 0.8398143649101257 -51.5560188293457  738318.745207838
-0.3955165147781372 0.5721504092216492 0.027995703741908073 -0.3510872721672058 0.8584941625595093 -51.56348419189453  738318.7452079515
-0.3958691954612732 0.5725165605545044 0.028035957366228104 -0.34879666566848755 0.877083957195282 -51.5758056640625  738318.745208127
-0.39676353335380554 0.5734202861785889 0.02801731787621975 -0.4405311346054077 0.8588904142379761 -51.55956268310547  738318.7452082908
-0.39535829424858093 0.5720184445381165 0.02842620760202408 -0.49155107140541077 0.7377961277961731 -51.51520538330078  738318.745208349
-0.3962234854698181 0.572624683380127 0.028507903218269348 -0.43171170353889465 0.7565218806266785 -51.485225677490234  738318.7452084614
-0.3945579528808594 0.5725478529930115 0.02870657481253147 -0.43131399154663086 0.7803547382354736 -51.50185012817383  738318.7452085306
-0.39603251218795776 0.5731896758079529 0.028073642402887344 -0.4111860692501068 0.757584810256958 -51.527626037597656  738318.7452087029
-0.3964424431324005 0.572495698928833 0.028138985857367516 -0.4278915524482727 0.7224103808403015 -51.53947448730469  738318.7452087505
-0.3957069516181946 0.5732547044754028 0.028133435174822807 -0.4589477479457855 0.7119224071502686 -51.512821197509766  738318.7452088858
-0.395780473947525 0.5731964707374573 0.028142718598246574 -0.4883359670639038 0.6461843848228455 -51.50822830200195  738318.7452089855
-0.39516204595565796 0.5724368691444397 0.028243130072951317 -0.4609712064266205 0.5415126085281372 -51.49179458618164  738318.7452091946
-0.39411401748657227 0.574976921081543 0.027276696637272835 -0.5401020646095276 0.5754877924919128 -51.44744110107422  738318.7452092408
-0.39566904306411743 0.5734618902206421 0.027356259524822235 -0.4897376596927643 0.4775332510471344 -51.43238067626953  738318.7452093211
-0.39430227875709534 0.5732201337814331 0.0273217111825943 -0.4670911133289337 0.38477855920791626 -51.46098327636719  738318.7452095336
-0.39558935165405273 0.5745962858200073 0.02715034782886505 -0.43937963247299194 0.42221352458000183 -51.483558654785156  738318.7452096161
-0.3956681191921234 0.5735820531845093 0.02763991802930832 -0.3686174154281616 0.6453758478164673 -51.55276870727539  738318.7452097038
-0.3963122069835663 0.5732636451721191 0.02757059969007969 -0.3489496111869812 0.6695849895477295 -51.52629089355469  738318.7452098368
-0.39530086517333984 0.5727983117103577 0.02759450115263462 -0.3158414661884308 0.5587778091430664 -51.482696533203125  738318.7452099349
-0.39605557918548584 0.5735004544258118 0.027565525844693184 -0.2911641001701355 0.5608409643173218 -51.46525573730469  738318.7452100385
-0.39632466435432434 0.573729395866394 0.027577029541134834 -0.37022680044174194 0.6233370900154114 -51.47263717651367  738318.7452101856
-0.39651334285736084 0.5741185545921326 0.026898076757788658 -0.3551160395145416 0.5703176259994507 -51.489707946777344  738318.7452102671
-0.39499300718307495 0.571984052658081 0.027004897594451904 -0.3062533140182495 0.45500385761260986 -51.47021484375  738318.7452104014
-0.3943556547164917 0.5712013244628906 0.02703208290040493 -0.30650991201400757 0.43152153491973877 -51.470191955566406  738318.7452104996
-0.3941671550273895 0.5729395747184753 0.02697630599141121 -0.3425115644931793 0.3880697190761566 -51.41968536376953  738318.745210632
-0.3949374854564667 0.5713141560554504 0.027273133397102356 -0.27246376872062683 0.4012438654899597 -51.47721862792969  738318.7452107166
-0.39384710788726807 0.5724173784255981 0.02729760855436325 -0.34816280007362366 0.36465510725975037 -51.44518280029297  738318.7452108541
-0.39278852939605713 0.5713949799537659 0.027419986203312874 -0.34266528487205505 0.2668948173522949 -51.41054916381836  738318.7452109521
-0.39509111642837524 0.5709453225135803 0.02755417488515377 -0.35070285201072693 0.2615092396736145 -51.34138107299805  738318.7452110605
-0.39367133378982544 0.5707420706748962 0.0276887658983469 -0.44448551535606384 0.15302520990371704 -51.25892639160156  738318.7452111763
-0.39325374364852905 0.5702855587005615 0.028675168752670288 -0.5546261668205261 0.03104117326438427 -51.1635627746582  738318.7452112731
-0.3934355676174164 0.5702980756759644 0.028825974091887474 -0.5936512351036072 -0.10413713753223419 -51.074180603027344  738318.7452113959
-0.3932226896286011 0.570311427116394 0.029006514698266983 -0.6010317802429199 -0.16387507319450378 -50.98210144042969  738318.7452115259
-0.3931179940700531 0.5702817440032959 0.029224758967757225 -0.5806374549865723 -0.1909629851579666 -50.859764099121094  738318.7452116307
-0.3936784565448761 0.5688624978065491 0.0277682114392519 -0.5649616718292236 -0.37309521436691284 -50.71912384033203  738318.7452118278
-0.39190444350242615 0.5681619644165039 0.027901487424969673 -0.5375901460647583 -0.6699230074882507 -50.54568862915039  738318.745211892
-0.39141884446144104 0.5678238868713379 0.02844097465276718 -0.5220750570297241 -0.5562134981155396 -50.58756637573242  738318.7452119745
-0.39108455181121826 0.5671529173851013 0.02866734378039837 -0.40948495268821716 -0.8142272233963013 -50.345279693603516  738318.745212093
-0.3901100158691406 0.5652071833610535 0.02883647195994854 -0.350330650806427 -1.0811240673065186 -50.08390426635742  738318.7452122034
-0.39047548174858093 0.5639981031417847 0.02629222348332405 -0.27608588337898254 -1.3226401805877686 -49.784542083740234  738318.745212321
-0.38965681195259094 0.5630276799201965 0.026357324793934822 -0.24400140345096588 -1.6447700262069702 -49.477378845214844  738318.7452124361
-0.3896643817424774 0.562924861907959 0.026502519845962524 -0.22898747026920319 -1.8790773153305054 -49.153099060058594  738318.7452125674
-0.38809484243392944 0.5610166788101196 0.026442846283316612 -0.1708163321018219 -2.0600461959838867 -48.771968841552734  738318.7452126744
-0.3871866464614868 0.5607681274414062 0.024073123931884766 -0.12679925560951233 -2.3176801204681396 -48.356239318847656  738318.7452127918
-0.38613802194595337 0.5574474930763245 0.023873839527368546 -0.05231912061572075 -2.688034772872925 -47.89602279663086  738318.7452129318
-0.38672974705696106 0.556656539440155 0.024337342008948326 0.17858783900737762 -2.749318838119507 -47.590118408203125  738318.7452130265
-0.38445162773132324 0.5551785826683044 0.024158671498298645 0.2884291708469391 -2.8996267318725586 -47.07404708862305  738318.7452131328
-0.3827892541885376 0.5530351400375366 0.02210637554526329 0.4024720788002014 -3.105886459350586 -46.52397537231445  738318.7452132502
-0.38153013586997986 0.5515773892402649 0.022037483751773834 0.4938616454601288 -3.2853572368621826 -45.96703338623047  738318.7452133559
-0.3798786699771881 0.5488088130950928 0.02172885462641716 0.5078924894332886 -3.3440945148468018 -45.400997161865234  738318.7452134814
-0.37871110439300537 0.5468001365661621 0.02157803438603878 0.4745274782180786 -3.2948710918426514 -44.80694580078125  738318.7452135985
-0.3769948184490204 0.5440558791160583 0.021191446110606194 0.4275673031806946 -3.209012269973755 -44.208473205566406  738318.7452137152
-0.374005526304245 0.5396249890327454 0.020925911143422127 0.22051730751991272 -2.790308952331543 -42.93142318725586  738318.7452138294
-0.3709258735179901 0.5355886220932007 0.01975942589342594 0.23499830067157745 -2.905681610107422 -42.930416107177734  738318.7452139455
-0.36929428577423096 0.5328108072280884 0.02035713940858841 -0.11210901290178299 -2.342971086502075 -41.60087585449219  738318.7452140485
-0.3691417872905731 0.5321880578994751 0.02017468400299549 -0.10432913899421692 -2.355750322341919 -41.600589752197266  738318.7452142008
-0.3676898181438446 0.5317992568016052 0.02168109081685543 -0.5625238418579102 -1.6199532747268677 -40.669410705566406  738318.7452142816
-0.3676898181438446 0.5317992568016052 0.02168109081685543 -0.5625238418579102 -1.6199532747268677 -40.669410705566406  738318.7452144007
-0.36981114745140076 0.5335113406181335 0.02462499774992466 -0.9008824825286865 -0.505647599697113 -39.29568099975586  738318.7452145247
-0.37086886167526245 0.5351913571357727 0.025063904002308846 -0.912567675113678 -0.4626535177230835 -39.29566955566406  738318.7452146437
-0.36865976452827454 0.5329535603523254 0.0266080591827631 -1.1703248023986816 0.6066109538078308 -37.871646881103516  738318.7452147546
-0.36906856298446655 0.5326401591300964 0.02637476846575737 -1.1588886976242065 0.6079960465431213 -37.87153244018555  738318.7452148662
-0.3687036633491516 0.5316892266273499 0.02839268557727337 -1.2183115482330322 1.426249623298645 -36.448272705078125  738318.7452149774
-0.36773601174354553 0.5305116176605225 0.029341936111450195 -1.1626975536346436 1.6704298257827759 -35.722015380859375  738318.7452151044
-0.36836808919906616 0.5315699577331543 0.030704503878951073 -1.141032099723816 1.941279411315918 -35.0212516784668  738318.7452153477
-0.36758100986480713 0.530370831489563 0.03309500589966774 -1.1309140920639038 2.018658399581909 -34.31850051879883  738318.7452154056
-0.3688518702983856 0.5313927531242371 0.03488997742533684 -0.9815380573272705 2.1567533016204834 -33.85161590576172  738318.745215452
-0.3665703535079956 0.5322748422622681 0.036293093115091324 -1.0456961393356323 2.106093168258667 -33.147159576416016  738318.7452155676
-0.3661438226699829 0.5314303636550903 0.037765126675367355 -1.1078835725784302 2.032106876373291 -32.447452545166016  738318.7452156845
-0.3652292490005493 0.5311142206192017 0.03931232541799545 -1.2325271368026733 1.9125418663024902 -31.741106033325195  738318.7452158002
-0.3665635585784912 0.5336584448814392 0.041330914944410324 -1.2630571126937866 1.9770017862319946 -31.74017333984375  738318.7452159002
-0.3658410608768463 0.5341551899909973 0.04309132695198059 -1.425345778465271 1.9205201864242554 -31.037757873535156  738318.7452160227
-0.3657287359237671 0.5330483317375183 0.04495741054415703 -1.5717214345932007 1.8633224964141846 -30.32061195373535  738318.7452161388
-0.364290714263916 0.5336052775382996 0.0468156673014164 -1.7783606052398682 1.8706220388412476 -29.625707626342773  738318.7452162551
-0.3630639612674713 0.5337069630622864 0.05112895369529724 -1.907715082168579 1.9737597703933716 -28.907363891601562  738318.7452164025
-0.3651851713657379 0.5342854857444763 0.05384981632232666 -1.7457020282745361 2.153341293334961 -28.316781997680664  738318.745216489
-0.36548784375190735 0.533666729927063 0.05618469417095184 -1.7900073528289795 2.262442111968994 -27.614700317382812  738318.7452165994
-0.3647982180118561 0.5346039533615112 0.05851684883236885 -1.8648406267166138 2.3738176822662354 -26.913381576538086  738318.74521671
-0.36394011974334717 0.5327550172805786 0.06097528338432312 -1.826245665550232 2.4242565631866455 -26.208303451538086  738318.7452168282
-0.36381766200065613 0.5328314304351807 0.06244766339659691 -1.7962948083877563 2.5007143020629883 -25.511245727539062  738318.745216949
-0.3636528253555298 0.5316202640533447 0.06492067873477936 -1.7235424518585205 2.5740580558776855 -24.830673217773438  738318.7452170613
-0.3629542887210846 0.5324833393096924 0.06736474484205246 -1.7138570547103882 2.5271077156066895 -24.169347763061523  738318.7452171769
-0.36300933361053467 0.5316348671913147 0.06988739222288132 -1.7173353433609009 2.3827364444732666 -23.528480529785156  738318.745217295
-0.36268094182014465 0.5311720967292786 0.07298491150140762 -1.7083461284637451 2.1938395500183105 -22.893890380859375  738318.7452174088
-0.36324623227119446 0.5301578044891357 0.07558351755142212 -1.6921565532684326 2.0357003211975098 -22.282943725585938  738318.7452176162
-0.3636186122894287 0.5287770628929138 0.07819586992263794 -1.6728960275650024 1.799098253250122 -21.679168701171875  738318.7452176762
-0.36436477303504944 0.5297984480857849 0.0814090296626091 -1.523297667503357 1.5350271463394165 -21.1248779296875  738318.7452177567
-0.36527562141418457 0.5295111536979675 0.08406949788331985 -1.5674262046813965 1.4380656480789185 -20.54840850830078  738318.7452178699
-0.3640945553779602 0.5303114056587219 0.08719363063573837 -1.6251838207244873 1.2873432636260986 -19.97243309020996  738318.7452179886
-0.36491838097572327 0.5273900032043457 0.08990488201379776 -1.5426216125488281 1.1452897787094116 -19.395858764648438  738318.7452180965
-0.3639819025993347 0.52792888879776 0.09256575256586075 -1.596827745437622 1.102712869644165 -18.83492088317871  738318.7452182173
-0.3639795780181885 0.5274397134780884 0.09521424025297165 -1.5928912162780762 1.0589334964752197 -18.282772064208984  738318.7452183386
-0.3646378815174103 0.5284121036529541 0.09677346050739288 -1.6175428628921509 1.0878998041152954 -17.734556198120117  738318.745218449
-0.3641981780529022 0.5275924801826477 0.09939051419496536 -1.6088985204696655 1.0741177797317505 -17.19721794128418  738318.7452185715
-0.36347225308418274 0.5270260572433472 0.10200954973697662 -1.611204743385315 1.0608882904052734 -16.658645629882812  738318.7452187181
-0.3659507632255554 0.5290868282318115 0.1051388829946518 -1.4837853908538818 1.0745997428894043 -16.23968505859375  738318.7452187999
-0.3660668134689331 0.5289558172225952 0.10459449887275696 -1.4984713792800903 1.0563279390335083 -15.705771446228027  738318.7452189112
-0.3661150336265564 0.529050350189209 0.10708577185869217 -1.5034414529800415 1.0641014575958252 -15.169756889343262  738318.7452190281
-0.36266815662384033 0.5303685069084167 0.10960405319929123 -1.5839470624923706 0.9698013067245483 -14.651721000671387  738318.7452191425
-0.3628171384334564 0.5300138592720032 0.11214663088321686 -1.6011037826538086 0.910327672958374 -14.13697338104248  738318.7452192658
-0.3627607524394989 0.5296662449836731 0.11468817293643951 -1.6370474100112915 0.916588306427002 -13.616032600402832  738318.7452193842
-0.36471202969551086 0.5302245616912842 0.11611279100179672 -1.6557081937789917 0.87886643409729 -13.062402725219727  738318.7452194849
-0.361691415309906 0.530204713344574 0.11862124502658844 -1.6672974824905396 0.7321637868881226 -12.550725936889648  738318.7452196085
-0.3623819947242737 0.5300506353378296 0.12117937952280045 -1.6568509340286255 0.7696073651313782 -12.02847957611084  738318.7452197217
-0.36216306686401367 0.5310823321342468 0.12371134012937546 -1.68205726146698 0.6777052879333496 -11.542213439941406  738318.7452198371
-0.36232849955558777 0.5318279266357422 0.12502218782901764 -1.662609338760376 0.6399428248405457 -11.063929557800293  738318.7452199812
-0.36276742815971375 0.5347434282302856 0.1281842440366745 -1.558850646018982 0.2511001527309418 -10.660026550292969  738318.7452200745
-0.3616534471511841 0.5347172617912292 0.13079386949539185 -1.4612922668457031 0.18133975565433502 -10.19655704498291  738318.7452201889
-0.36142536997795105 0.5347831845283508 0.13344605267047882 -1.3865301609039307 0.17529775202274323 -9.735459327697754  738318.7452202984
-0.3617017865180969 0.5334721207618713 0.13622251152992249 -1.2324142456054688 0.1683308333158493 -9.279694557189941  738318.7452204133
-0.3598213493824005 0.5353276133537292 0.13829192519187927 -1.185313105583191 0.22211197018623352 -8.784879684448242  738318.7452205331
-0.3597267270088196 0.5356459617614746 0.1410498023033142 -1.089740514755249 0.28784316778182983 -8.341793060302734  738318.7452206492
-0.35978567600250244 0.5353221893310547 0.14388401806354523 -0.9680031538009644 0.3233254551887512 -7.914182662963867  738318.7452207651
-0.35956665873527527 0.5357911586761475 0.14673520624637604 -0.9068376421928406 0.40150579810142517 -7.485490798950195  738318.7452208879
-0.35908520221710205 0.5365117192268372 0.14938166737556458 -0.8458033800125122 0.44982877373695374 -7.071324825286865  738318.7452210282
-0.3597032427787781 0.5400041937828064 0.15286460518836975 -0.8478038907051086 0.42676839232444763 -6.753996849060059  738318.745221109
-0.3607240617275238 0.53985196352005 0.155905082821846 -0.8137807250022888 0.5244912505149841 -6.341463088989258  738318.7452212358
-0.3603561222553253 0.5401718616485596 0.15895353257656097 -0.7921146154403687 0.5709273815155029 -5.929515838623047  738318.7452213402
-0.36050286889076233 0.540519654750824 0.16205953061580658 -0.7822017073631287 0.6595433354377747 -5.52886962890625  738318.7452214689
-0.3607858121395111 0.54081130027771 0.16353169083595276 -0.7458409667015076 0.7315888404846191 -5.126509666442871  738318.7452215785
-0.36058342456817627 0.5411657094955444 0.166642963886261 -0.7190026640892029 0.802539587020874 -4.732625961303711  738318.7452216907
-0.3604949712753296 0.5417134165763855 0.16980963945388794 -0.7287851572036743 0.8038228154182434 -4.338739395141602  738318.7452218012
-0.36097729206085205 0.5423697829246521 0.1730438619852066 -0.6992390155792236 0.7955103516578674 -3.9525089263916016  738318.745221918
-0.36069411039352417 0.5422651171684265 0.17697815597057343 -0.6643353700637817 0.8082540035247803 -3.5743019580841064  738318.7452220375
-0.36091381311416626 0.5435856580734253 0.18033243715763092 -0.6209008693695068 0.7896934151649475 -3.2021396160125732  738318.7452221611
-0.36050376296043396 0.5431849956512451 0.18378102779388428 -0.5217131972312927 0.7732513546943665 -2.844405174255371  738318.7452222933
-0.3600826561450958 0.5486465096473694 0.18800686299800873 -0.5338064432144165 0.6421419382095337 -2.499778985977173  738318.7452223799
-0.3595258891582489 0.5491361618041992 0.1915617734193802 -0.4611136317253113 0.5812722444534302 -2.1401968002319336  738318.7452224917
-0.35932785272598267 0.5490149259567261 0.1927359402179718 -0.3802954852581024 0.5641583204269409 -1.7968755960464478  738318.7452226159
-0.3592994809150696 0.5494877696037292 0.19623687863349915 -0.27590855956077576 0.528252899646759 -1.4490282535552979  738318.7452227322
-0.3593898117542267 0.5498933792114258 0.19979064166545868 -0.17632459104061127 0.5273569226264954 -1.1118711233139038  738318.7452228423
-0.3604487478733063 0.5502761006355286 0.20338298380374908 -0.10943961143493652 0.5394744873046875 -0.7875962257385254  738318.7452229568
-0.3605065643787384 0.5508096814155579 0.20699848234653473 -0.0389908142387867 0.5248284339904785 -0.46214017271995544  738318.7452230897
-0.3604062497615814 0.5495551824569702 0.21067902445793152 0.04229334369301796 0.5372954607009888 -0.15481220185756683  738318.745223182
-0.360443651676178 0.5500802397727966 0.214380145072937 0.11425003409385681 0.5424928069114685 0.16231858730316162  738318.7452233516
-0.3608344495296478 0.5567967295646667 0.21892990171909332 0.06751138716936111 0.6541585922241211 0.5306800007820129  738318.7452234227
-0.3608393967151642 0.557468593120575 0.22274748980998993 0.14143869280815125 0.6490164995193481 0.8383995294570923  738318.7452235385
-0.3607473373413086 0.5581004619598389 0.2240266352891922 0.19477170705795288 0.6885214447975159 1.1285725831985474  738318.7452236505
-0.3609282076358795 0.5591498613357544 0.227779820561409 0.2405245155096054 0.6713595986366272 1.4160256385803223  738318.7452237732
-0.3610067665576935 0.5597382187843323 0.23157024383544922 0.3043282628059387 0.7369143962860107 1.7069523334503174  738318.7452238831
-0.36100345849990845 0.5606828331947327 0.2353828102350235 0.3453514277935028 0.7297424674034119 1.9776939153671265  738318.7452240165
-0.36127883195877075 0.5611740350723267 0.24102436006069183 0.4084835946559906 0.7487417459487915 2.2604904174804688  738318.7452241319
-0.36131003499031067 0.5618377923965454 0.24501582980155945 0.4388517737388611 0.7592700123786926 2.518885374069214  738318.7452242376
-0.36147478222846985 0.5625079870223999 0.2490290403366089 0.4970725476741791 0.8051829934120178 2.7814223766326904  738318.7452243502
-0.36157676577568054 0.5631712079048157 0.2530677318572998 0.552751898765564 0.8240190148353577 3.0319457054138184  738318.7452245047
-0.3620029091835022 0.572062611579895 0.2579621970653534 0.5506188869476318 0.8377758860588074 3.3420488834381104  738318.7452245736
-0.36202913522720337 0.5727026462554932 0.26087772846221924 0.601988673210144 0.8549438714981079 3.579890012741089  738318.7452246981
-0.36224138736724854 0.5734540820121765 0.26494890451431274 0.6705102920532227 0.8495450019836426 3.8128163814544678  738318.7452248139
-0.36160197854042053 0.5734196305274963 0.26905593276023865 0.7244186997413635 0.8596591949462891 4.037625789642334  738318.7452249296
-0.3619840443134308 0.5743789076805115 0.27315554022789 0.8200162053108215 0.825932502746582 4.245019912719727  738318.7452250428
-0.36218076944351196 0.5754283666610718 0.2767621576786041 0.9204016923904419 0.8591753244400024 4.456511974334717  738318.7452251615
-0.36249199509620667 0.5764750242233276 0.28084471821784973 1.0509107112884521 0.8546713590621948 4.642561912536621  738318.7452252815
-0.3627091348171234 0.5769160985946655 0.2849460244178772 1.1868757009506226 0.8932735323905945 4.836321830749512  738318.7452253939
-0.36297351121902466 0.5775704979896545 0.2890482544898987 1.3607810735702515 0.9129567742347717 5.011816501617432  738318.745225507
-0.36351442337036133 0.5784403085708618 0.2931455373764038 1.5023599863052368 0.9592798352241516 5.189265727996826  738318.7452257625
-0.36377114057540894 0.5791425108909607 0.2943110466003418 1.6625382900238037 0.9775564670562744 5.3593597412109375  738318.7452258202
-0.36599209904670715 0.5875809788703918 0.2989588975906372 1.7707170248031616 1.1874498128890991 5.601649761199951  738318.7452258663
-0.3664204180240631 0.5882850289344788 0.30288684368133545 1.8934708833694458 1.21542489528656 5.762547969818115  738318.7452259584
-0.36660248041152954 0.5883640050888062 0.3068099617958069 1.9850106239318848 1.2287991046905518 5.8955488204956055  738318.745226074
-0.3670538663864136 0.5889754295349121 0.3107244074344635 2.0526211261749268 1.2205595970153809 6.028586387634277  738318.7452262079
-0.3673199415206909 0.5903279781341553 0.31462740898132324 2.087226390838623 1.1930359601974487 6.142078876495361  738318.7452263131
-0.3677971363067627 0.5908973217010498 0.3185283839702606 2.1275634765625 1.0843809843063354 6.259592056274414  738318.7452264399
-0.36736029386520386 0.5915171504020691 0.32242971658706665 2.152001142501831 1.0004175901412964 6.3663434982299805  738318.7452265522
-0.3678295612335205 0.5920153260231018 0.3262924551963806 2.1999380588531494 0.8686155676841736 6.4704718589782715  738318.7452266671
-0.3680902421474457 0.5924003720283508 0.32956400513648987 2.2224738597869873 0.800742506980896 6.5662736892700195  738318.7452267817
-0.3686452805995941 0.5928151607513428 0.3333269953727722 2.2716028690338135 0.6970314979553223 6.65146541595459  738318.7452268972
-0.37081456184387207 0.6003023386001587 0.337909460067749 2.2707998752593994 0.766460120677948 6.789729595184326  738318.7452270098
-0.37140586972236633 0.6007687449455261 0.34166955947875977 2.316662549972534 0.6965550780296326 6.841980457305908  738318.7452271192
-0.3714916706085205 0.600619912147522 0.3470233678817749 2.361351251602173 0.6554800868034363 6.897341728210449  738318.7452272443
-0.37204843759536743 0.6012392640113831 0.35083112120628357 2.418138027191162 0.5885578393936157 6.941742420196533  738318.7452273467
-0.372638076543808 0.6015716195106506 0.3546047508716583 2.44930100440979 0.5761680006980896 6.977962017059326  738318.7452274669
-0.37255775928497314 0.6016919016838074 0.35834917426109314 2.4989328384399414 0.46895474195480347 7.016989231109619  738318.7452275902
-0.37300190329551697 0.6026118397712708 0.36206141114234924 2.5255861282348633 0.39110827445983887 7.050627708435059  738318.7452277085
-0.3734811544418335 0.6029462814331055 0.3652973175048828 2.5702099800109863 0.28340092301368713 7.071415901184082  738318.74522781
-0.3744209110736847 0.6032419204711914 0.36890411376953125 2.5755529403686523 0.2346726655960083 7.093958377838135  738318.7452280306
-0.3749997615814209 0.6033920645713806 0.3724686801433563 2.6115214824676514 0.1544192135334015 7.104319095611572  738318.7452280925
-0.3769289255142212 0.6091175079345703 0.37670907378196716 2.5925240516662598 0.20708243548870087 7.196142673492432  738318.7452281599
-0.3764401972293854 0.6094425320625305 0.38185903429985046 2.5849556922912598 0.1098821684718132 7.19738245010376  738318.7452282839
-0.37693268060684204 0.6097196936607361 0.38539713621139526 2.5363495349884033 0.026029765605926514 7.180335998535156  738318.7452283885
-0.37752702832221985 0.6097949743270874 0.3888855576515198 2.476766586303711 -0.037957366555929184 7.164043426513672  738318.7452285044
-0.3776199519634247 0.6100841164588928 0.39232563972473145 2.444969654083252 -0.12662111222743988 7.137042045593262  738318.7452286315
-0.37848004698753357 0.6100467443466187 0.39570844173431396 2.424647092819214 -0.22296001017093658 7.124111652374268  738318.7452287475
-0.3783988356590271 0.6100876331329346 0.39902612566947937 2.404013156890869 -0.3348003029823303 7.0970282554626465  738318.7452288514
-0.37997695803642273 0.6099222302436829 0.4023141860961914 2.3939621448516846 -0.401598185300827 7.081704139709473  738318.7452289753
-0.3805384635925293 0.6098095178604126 0.40555286407470703 2.3724756240844727 -0.4373434782028198 7.0583720207214355  738318.7452291235
-0.38178813457489014 0.6141672134399414 0.4093533754348755 2.384801149368286 -0.46796852350234985 7.1055827140808105  738318.7452292053
-0.38240957260131836 0.6141690015792847 0.4110400378704071 2.374948740005493 -0.4926149249076843 7.084959030151367  738318.7452293164
-0.38291284441947937 0.6139493584632874 0.41405436396598816 2.359893321990967 -0.4898053705692291 7.047299861907959  738318.7452294489
-0.38345932960510254 0.613758385181427 0.4169900715351105 2.331038475036621 -0.46542230248451233 7.015837669372559  738318.7452295576
-0.38363245129585266 0.6134649515151978 0.4198679029941559 2.336555242538452 -0.4379523992538452 6.98124885559082  738318.7452296846
-0.38429439067840576 0.6132717728614807 0.42229247093200684 2.3848888874053955 -0.39737778902053833 6.94475793838501  738318.7452297768
-0.38466715812683105 0.6125662922859192 0.4250301718711853 2.4277825355529785 -0.3326663076877594 6.909787178039551  738318.7452298986
-0.3851214349269867 0.6125684976577759 0.42771196365356445 2.4936630725860596 -0.348524272441864 6.873483657836914  738318.7452300192
-0.3856157958507538 0.6122188568115234 0.43030425906181335 2.5425171852111816 -0.36195480823516846 6.85143518447876  738318.7452301263
-0.3860834240913391 0.6118043661117554 0.43280327320098877 2.5529184341430664 -0.40236741304397583 6.818443298339844  738318.7452302508
-0.38658908009529114 0.611354410648346 0.43353384733200073 2.5231575965881348 -0.42022383213043213 6.8035888671875  738318.7452306432
-0.3859465420246124 0.6114607453346252 0.4358217120170593 2.4819602966308594 -0.4712502658367157 6.778732776641846  738318.7452308049
-0.3865601420402527 0.6140300631523132 0.4386201798915863 2.4697036743164062 -0.48668035864830017 6.812724590301514  738318.7452311695
-0.38690492510795593 0.6135571002960205 0.4408036768436432 2.3977153301239014 -0.4989229738712311 6.7903733253479  738318.7452313311
-0.3872177302837372 0.6130895018577576 0.4428187608718872 2.2852187156677246 -0.514804482460022 6.760804653167725  738318.7452315595
-0.38763824105262756 0.6125476360321045 0.44488760828971863 2.1379969120025635 -0.5402055382728577 6.740309715270996  738318.7452317328
-0.38807588815689087 0.612069308757782 0.446908563375473 2.021361827850342 -0.5572229027748108 6.713596343994141  738318.745231848
-0.388386070728302 0.6114721894264221 0.4488852918148041 1.9218734502792358 -0.5622019171714783 6.6919755935668945  738318.7452320558
-0.38845428824424744 0.6103620529174805 0.45080816745758057 1.8082412481307983 -0.5574449896812439 6.670961380004883  738318.745232379
-0.38881099224090576 0.610260009765625 0.45189929008483887 1.7038524150848389 -0.5812086462974548 6.648054599761963  738318.7452325776
-0.3889800012111664 0.6090710759162903 0.4537179172039032 1.6079820394515991 -0.5731046199798584 6.637977123260498  738318.7452327161
-0.38920077681541443 0.6105186939239502 0.45608657598495483 1.5312515497207642 -0.5908367037773132 6.674874782562256  738318.7452329124
-0.38901999592781067 0.609760582447052 0.4578790068626404 1.4648929834365845 -0.5771927833557129 6.6577863693237305  738318.7452329819
-0.38918083906173706 0.6087304949760437 0.4589317739009857 1.4126733541488647 -0.5924894213676453 6.644259929656982  738318.7452334086
-0.38940349221229553 0.6079113483428955 0.46061646938323975 1.3186395168304443 -0.6236854791641235 6.62572717666626  738318.7452335357
-0.38953936100006104 0.6075237989425659 0.4622860252857208 1.2548282146453857 -0.6469849348068237 6.611789703369141  738318.745233868
-0.38943761587142944 0.6065268516540527 0.4639270305633545 1.241212248802185 -0.7269121408462524 6.618637561798096  738318.7452339835
-0.38935190439224243 0.605485200881958 0.46374109387397766 1.3868728876113892 -0.957236111164093 6.657476425170898  738318.7452341566
-0.3891347050666809 0.604109525680542 0.4652280807495117 1.713570475578308 -1.3992966413497925 6.698521614074707  738318.745234272
-0.3890460431575775 0.6033027768135071 0.46669331192970276 2.2744247913360596 -2.1004843711853027 6.772031307220459  738318.7452344454
-0.38927116990089417 0.6035372614860535 0.46865949034690857 2.99853253364563 -2.942331552505493 6.893430233001709  738318.7452346763
-0.38942089676856995 0.6028621196746826 0.47008609771728516 4.088723182678223 -4.218037128448486 6.9933905601501465  738318.7452349069
-0.388405442237854 0.6013560891151428 0.4686685800552368 5.369887828826904 -5.646772384643555 7.1031622886657715  738318.7452352532
-0.3886467218399048 0.600348174571991 0.4698405861854553 6.755420207977295 -7.149705410003662 7.254219055175781  738318.7452354844
-0.38812455534935 0.5988903641700745 0.4709193706512451 8.222152709960938 -8.676834106445312 7.420343399047852  738318.7452356459
-0.3877069652080536 0.5980802178382874 0.4719858467578888 9.702730178833008 -10.07858943939209 7.5993123054504395  738318.7452358996
-0.38657400012016296 0.596169650554657 0.4730091392993927 11.174087524414062 -11.370867729187012 7.797272682189941  738318.7452360265
-0.3850165903568268 0.5944254994392395 0.47383078932762146 12.442258834838867 -12.446646690368652 7.969061374664307  738318.7452362572
-0.38418611884117126 0.5932287573814392 0.47464337944984436 13.555159568786621 -13.31957721710205 8.098183631896973  738318.7452363726
-0.38295960426330566 0.5907695293426514 0.4752568304538727 14.434535026550293 -13.932403564453125 8.16905403137207  738318.7452365342
-0.3814432919025421 0.5890086889266968 0.4758366048336029 15.100912094116211 -14.359888076782227 8.188044548034668  738318.7452367074
-0.3798394203186035 0.5866869688034058 0.47759151458740234 15.529044151306152 -14.537461280822754 8.121520042419434  738318.7452368344
-0.38035205006599426 0.5819103717803955 0.4784158170223236 16.000972747802734 -14.1215181350708 7.987432956695557  738318.7452371113
-0.3782520294189453 0.57924884557724 0.47879332304000854 16.11644744873047 -14.080771446228027 7.854162216186523  738318.7452372994
-0.37573063373565674 0.5760214924812317 0.47901028394699097 16.109968185424805 -14.008013725280762 7.719291687011719  738318.7452374842
-0.3733481764793396 0.5726033449172974 0.4799745976924896 16.0910587310791 -13.971234321594238 7.609302520751953  738318.7452376456
-0.37059012055397034 0.5690107345581055 0.4801132082939148 16.074142456054688 -13.977866172790527 7.528607368469238  738318.7452378188
-0.36723458766937256 0.565494954586029 0.4801901578903198 16.084930419921875 -14.085993766784668 7.475559711456299  738318.7452381189
-0.36382973194122314 0.5605229139328003 0.4801246225833893 16.187585830688477 -14.278074264526367 7.453001499176025  738318.745238165
-0.3601858615875244 0.5559536814689636 0.48015230894088745 16.344680786132812 -14.513398170471191 7.443558692932129  738318.7452383036
-0.35601794719696045 0.5514571070671082 0.4800642132759094 16.538055419921875 -14.706518173217773 7.429940700531006  738318.7452383267
