% x y z r p yw  738318.7021137425
-0.014726966619491577 -0.46135613322257996 -0.20529919862747192 173.22616577148438 4.724441051483154 61.440887451171875  738318.7021516664
-0.02345498651266098 -0.4756101071834564 -0.20729713141918182 173.14846801757812 4.610515117645264 61.41944122314453  738318.7021517834
-0.031535208225250244 -0.4886070191860199 -0.20908138155937195 173.04295349121094 4.52614688873291 61.428592681884766  738318.7021519026
-0.03975421190261841 -0.5016431212425232 -0.21083013713359833 172.94618225097656 4.477875232696533 61.429264068603516  738318.7021520191
-0.0481150783598423 -0.5147109031677246 -0.21254804730415344 172.85125732421875 4.463442325592041 61.4293098449707  738318.7021522166
0.04810859262943268 -0.48640337586402893 -0.13470448553562164 173.10916137695312 2.4625282287597656 97.01358795166016  738318.7021522513
0.04481877386569977 -0.5029228329658508 -0.13440562784671783 173.0540313720703 2.395148277282715 97.00078582763672  738318.702152362
0.04142695292830467 -0.51949143409729 -0.1340712308883667 172.97654724121094 2.3079662322998047 97.00489044189453  738318.7021524772
0.03793247416615486 -0.5361142158508301 -0.13369885087013245 172.89443969726562 2.1847336292266846 96.99762725830078  738318.7021525934
0.034326162189245224 -0.552793562412262 -0.1332920789718628 172.83363342285156 2.0659830570220947 96.98157501220703  738318.7021526974
0.03061370924115181 -0.5695271492004395 -0.1328512579202652 172.71865844726562 1.9707518815994263 96.98371887207031  738318.7021528361
0.02679499238729477 -0.5863245725631714 -0.13237765431404114 172.6588134765625 1.8635601997375488 96.98026275634766  738318.7021529305
0.022869212552905083 -0.6031836867332458 -0.13187050819396973 172.59303283691406 1.803907036781311 96.97022247314453  738318.7021530585
0.018839558586478233 -0.6200950741767883 -0.13132663071155548 172.499267578125 1.7448289394378662 96.9786148071289  738318.7021531977
0.22572660446166992 -0.6690338253974915 -0.0742339938879013 177.03213500976562 -1.5544120073318481 176.74327087402344  738318.702153288
0.24227821826934814 -0.6841736435890198 -0.07114844769239426 177.0127410888672 -1.6606268882751465 176.72901916503906  738318.7021533918
0.258789986371994 -0.6993495225906372 -0.06800305843353271 176.99249267578125 -1.774613380432129 176.73898315429688  738318.7021535278
0.2752681076526642 -0.7145661115646362 -0.06479889154434204 177.00845336914062 -1.933456301689148 176.73219299316406  738318.7021536352
0.2917097806930542 -0.7298164963722229 -0.06153539568185806 176.98609924316406 -2.0567626953125 176.71543884277344  738318.7021537393
0.30811259150505066 -0.7450989484786987 -0.058214932680130005 176.97817993164062 -2.1753315925598145 176.72360229492188  738318.7021538664
0.32448652386665344 -0.7604206800460815 -0.05483876168727875 176.99864196777344 -2.3040945529937744 176.72262573242188  738318.7021539715
0.34082430601119995 -0.7757784724235535 -0.05140446871519089 176.98513793945312 -2.404812812805176 176.70663452148438  738318.7021540973
0.3571131229400635 -0.7911715507507324 -0.047911737114191055 176.9774627685547 -2.474708080291748 176.70806884765625  738318.7021542125
0.3733600080013275 -0.8066005110740662 -0.044360365718603134 176.98699951171875 -2.6053364276885986 176.7174835205078  738318.702154328
0.3895587921142578 -0.8220629096031189 -0.040750473737716675 176.97427368164062 -2.7226176261901855 176.69956970214844  738318.7021544655
0.405696839094162 -0.8375592827796936 -0.03708464279770851 176.9755401611328 -2.8226168155670166 176.69541931152344  738318.7021545611
0.14713163673877716 -0.7240800261497498 -0.03301026672124863 175.42405700683594 -0.9073939919471741 123.59883880615234  738318.7021546693
0.14474159479141235 -0.7406299710273743 -0.030383523553609848 175.38961791992188 -1.0394741296768188 123.59529876708984  738318.7021547847
0.1422838270664215 -0.7572007775306702 -0.027720587328076363 175.32650756835938 -1.1269464492797852 123.57737731933594  738318.7021549004
0.1397598832845688 -0.7737963199615479 -0.025023531168699265 175.26246643066406 -1.211459994316101 123.57611846923828  738318.7021550193
0.13717427849769592 -0.7904254198074341 -0.02229272574186325 175.22274780273438 -1.3337641954421997 123.58946228027344  738318.7021551363
0.13452015817165375 -0.8070758581161499 -0.01952500455081463 175.1649169921875 -1.4183714389801025 123.57551574707031  738318.7021552487
0.13179054856300354 -0.8237419128417969 -0.01672108843922615 175.11512756347656 -1.4860738515853882 123.55909729003906  738318.7021553649
0.12898802757263184 -0.8404313325881958 -0.013883467763662338 175.05270385742188 -1.6103150844573975 123.56011962890625  738318.702155479
0.1261085569858551 -0.8571417927742004 -0.011012017726898193 175.0026092529297 -1.7281053066253662 123.5713119506836  738318.7021556612
2.1808278560638428 -1.0022826194763184 0.15755458176136017 -176.96157836914062 0.3316046893596649 -117.92044830322266  738318.7021557117
2.2308807373046875 -1.0093928575515747 0.16598854959011078 -177.028564453125 0.42300716042518616 -117.94683837890625  738318.7021558282
2.2808990478515625 -1.0164473056793213 0.1743648499250412 -177.08290100097656 0.5130815505981445 -117.93295288085938  738318.702155933
2.3308768272399902 -1.0234484672546387 0.18268489837646484 -177.15179443359375 0.6120421886444092 -117.90727996826172  738318.7021560558
2.3808181285858154 -1.0303984880447388 0.19095155596733093 -177.20167541503906 0.7245811223983765 -117.92792510986328  738318.7021561769
2.430727481842041 -1.037292242050171 0.19916415214538574 -177.25161743164062 0.8258019685745239 -117.95768737792969  738318.7021562925
2.4806020259857178 -1.044132113456726 0.20732058584690094 -177.32557678222656 0.9282052516937256 -117.94782257080078  738318.7021564081
2.5304453372955322 -1.0509209632873535 0.21542051434516907 -177.38169860839844 1.0307390689849854 -117.91925048828125  738318.7021565239
2.5802576541900635 -1.0576491355895996 0.2234659343957901 -177.4409942626953 1.1125742197036743 -117.92594146728516  738318.702156698
2.1522586345672607 -0.9867644906044006 0.2877019941806793 -140.47219848632812 19.73405647277832 -144.07582092285156  738318.7021567557
2.190021514892578 -0.9993221163749695 0.3132465183734894 -140.49234008789062 19.841514587402344 -144.11648559570312  738318.7021568655
2.227656364440918 -1.0112032890319824 0.3384687602519989 -140.54989624023438 19.962905883789062 -144.11451721191406  738318.7021569813
2.2651634216308594 -1.0224061012268066 0.3633718192577362 -140.58004760742188 20.06793785095215 -144.135498046875  738318.7021571025
2.3025410175323486 -1.0329333543777466 0.3879580497741699 -140.58737182617188 20.162004470825195 -144.20437622070312  738318.7021572056
2.339790105819702 -1.0427831411361694 0.41222116351127625 -140.61178588867188 20.25822639465332 -144.2479248046875  738318.7021573331
2.376912832260132 -1.0519592761993408 0.4361611604690552 -140.64158630371094 20.37303352355957 -144.25527954101562  738318.7021574493
2.4139113426208496 -1.0604640245437622 0.45978179574012756 -140.67921447753906 20.49253273010254 -144.28016662597656  738318.7021575621
2.450789213180542 -1.0682908296585083 0.4830823540687561 -140.71188354492188 20.587181091308594 -144.3235626220703  738318.70215768
2.487546682357788 -1.0754386186599731 0.5060604214668274 -140.73065185546875 20.67060089111328 -144.35667419433594  738318.7021577961
2.5241825580596924 -1.0819112062454224 0.5287147164344788 -140.76089477539062 20.77311134338379 -144.38107299804688  738318.702157977
1.9214218854904175 -0.9619752168655396 0.6763814091682434 -99.47592163085938 6.028417110443115 -174.76060485839844  738318.70215803
1.9337667226791382 -0.9570642709732056 0.6989648342132568 -99.47310638427734 6.113189220428467 -174.8341064453125  738318.7021581464
1.9460861682891846 -0.9511719942092896 0.7206960320472717 -99.47693634033203 6.186153411865234 -174.92001342773438  738318.7021582508
1.9583812952041626 -0.9442986249923706 0.7415752410888672 -99.4784927368164 6.2767815589904785 -175.00485229492188  738318.7021583753
1.9706554412841797 -0.9364461898803711 0.7615997195243835 -99.47759246826172 6.383085250854492 -175.06973266601562  738318.7021585025
1.982904314994812 -0.9276151657104492 0.7807692289352417 -99.47174072265625 6.471322059631348 -175.13856506347656  738318.7021586064
1.9951292276382446 -0.9178064465522766 0.7990877628326416 -99.46536254882812 6.5375752449035645 -175.21559143066406  738318.7021587327
2.0073392391204834 -0.9070201516151428 0.8165565729141235 -99.47213745117188 6.616885185241699 -175.28392028808594  738318.7021588365
2.019534111022949 -0.8952533602714539 0.8331738710403442 -99.47724914550781 6.724117755889893 -175.3493194580078  738318.7021589419
2.0317094326019287 -0.8825048208236694 0.8489389419555664 -99.47793579101562 6.81986141204834 -175.42601013183594  738318.7021591412
1.31540846824646 -0.6966261863708496 0.7421165108680725 -62.33612823486328 -44.28841018676758 149.1457977294922  738318.7021591755
1.3380672931671143 -0.6896974444389343 0.7289506793022156 -62.35791778564453 -44.23366928100586 149.03530883789062  738318.7021592999
1.3614740371704102 -0.6822136044502258 0.7144550085067749 -62.39990234375 -44.15351486206055 148.9025421142578  738318.7021594025
1.38563072681427 -0.6741713881492615 0.6986265778541565 -62.43071746826172 -44.08230972290039 148.78341674804688  738318.7021595184
1.4105379581451416 -0.6655700206756592 0.6814683675765991 -62.443607330322266 -44.03571701049805 148.69143676757812  738318.7021596422
1.436194658279419 -0.6564135551452637 0.6629815697669983 -62.47174835205078 -43.979949951171875 148.5881805419922  738318.702159769
1.4626007080078125 -0.6467059254646301 0.6431625485420227 -62.51186752319336 -43.89848327636719 148.46104431152344  738318.7021598773
1.489758849143982 -0.636448085308075 0.6220093965530396 -62.538333892822266 -43.82339096069336 148.34326171875  738318.7021599906
1.5176700353622437 -0.6256382465362549 0.5995239019393921 -62.55061721801758 -43.77659225463867 148.24533081054688  738318.7021601059
1.5463318824768066 -0.6142758727073669 0.5757086277008057 -62.57646179199219 -43.725830078125 148.1365966796875  738318.702160232
1.2129342555999756 -0.18388186395168304 0.34446749091148376 -110.29037475585938 15.258023262023926 -151.05137634277344  738318.7021603446
1.195415735244751 -0.16338486969470978 0.3461352288722992 -110.30833435058594 15.366971969604492 -151.10569763183594  738318.7021606022
1.1775457859039307 -0.1419897973537445 0.34715670347213745 -110.31471252441406 15.44533634185791 -151.17333984375  738318.702160937
1.159328579902649 -0.11969666182994843 0.34753352403640747 -110.32501983642578 15.518595695495605 -151.23782348632812  738318.7021610523
1.140767216682434 -0.09650355577468872 0.3472663462162018 -110.3475570678711 15.618550300598145 -151.2898712158203  738318.70216126
1.1218621730804443 -0.07240734994411469 0.3463553488254547 -110.36904907226562 15.72962760925293 -151.34390258789062  738318.7021613874
1.102614164352417 -0.04740562289953232 0.3447993993759155 -110.38179016113281 15.81888484954834 -151.41065979003906  738318.7021615143
1.0830250978469849 -0.021499667316675186 0.342598021030426 -110.38831329345703 15.892862319946289 -151.48118591308594  738318.7021616066
1.063097357749939 0.0053075700998306274 0.33975303173065186 -110.40243530273438 15.988300323486328 -151.5399932861328  738318.7021618607
1.0428329706192017 0.03301625698804855 0.336266428232193 -110.42513275146484 16.096424102783203 -151.59559631347656  738318.702161953
0.7999277710914612 -0.041794199496507645 0.1678907722234726 -93.8521728515625 -2.8748316764831543 -178.64398193359375  738318.7021621034
0.7859932780265808 -0.005843844264745712 0.1450212001800537 -93.8525619506836 -2.805746555328369 -178.72518920898438  738318.7021623151
0.7720549702644348 0.031131256371736526 0.12124048918485641 -93.8521957397461 -2.724879026412964 -178.8055877685547  738318.7021624421
0.7581155300140381 0.06912894546985626 0.096551813185215 -93.85257720947266 -2.6278605461120605 -178.8785400390625  738318.7021626253
0.744178295135498 0.10815112292766571 0.07095696032047272 -93.85906982421875 -2.540564775466919 -178.95333862304688  738318.7021627753
0.730244517326355 0.14819961786270142 0.04445541650056839 -93.8665542602539 -2.4685866832733154 -179.03306579589844  738318.7021628792
0.7163169384002686 0.18927395343780518 0.01704474166035652 -93.87003326416016 -2.3884620666503906 -179.1146240234375  738318.7021630292
0.7023978233337402 0.23137129843235016 -0.011277580633759499 -93.86872863769531 -2.295254945755005 -179.1932373046875  738318.7021632371
0.6884862780570984 0.27449002861976624 -0.04051051288843155 -93.86502838134766 -2.205281972885132 -179.27305603027344  738318.7021634101
0.6745826005935669 0.31863221526145935 -0.07064900547266006 -93.8638916015625 -2.130948066711426 -179.3533477783203  738318.7021635949
0.6606893539428711 0.363800048828125 -0.10169094055891037 -93.86911010742188 -2.0533463954925537 -179.4256591796875  738318.7021639132
0.8423115015029907 0.2994585335254669 -0.4535442888736725 -100.7657241821289 -56.66172790527344 116.41092681884766  738318.7021642367
0.8965390920639038 0.32508039474487305 -0.5029597878456116 -100.73905181884766 -56.57069778442383 116.36221313476562  738318.7021646287
0.9515884518623352 0.3512534499168396 -0.5532673597335815 -100.71633911132812 -56.49092483520508 116.30117797851562  738318.702164871
1.007459044456482 0.3779747486114502 -0.6044671535491943 -100.69569396972656 -56.4127311706543 116.23345184326172  738318.7021649675
1.0641505718231201 0.4052458107471466 -0.6565601229667664 -100.67789459228516 -56.32426834106445 116.16675567626953  738318.702165083
1.121662974357605 0.43307045102119446 -0.7095460295677185 -100.6606216430664 -56.233131408691406 116.1055908203125  738318.7021651984
1.1799968481063843 0.4614478647708893 -0.7634245753288269 -100.63988494873047 -56.14877700805664 116.05086517333984  738318.7021654062
1.2391526699066162 0.49037325382232666 -0.8181965947151184 -100.61738586425781 -56.07126235961914 115.99601745605469  738318.702165499
1.299132227897644 0.5198425650596619 -0.8738621473312378 -100.58805084228516 -55.98841857910156 115.94657897949219  738318.7021655563
1.359937071800232 0.5498538613319397 -0.9304206371307373 -100.5567626953125 -55.89748764038086 115.8965835571289  738318.7021658106
1.421568512916565 0.5804073810577393 -0.9878717064857483 -100.5337142944336 -55.81121826171875 115.83662414550781  738318.702166101
0.541244626045227 0.6950666904449463 -0.7823264002799988 -90.20234680175781 -17.004806518554688 163.36668395996094  738318.7021663549
0.5349488854408264 0.7476719617843628 -0.8319512009620667 -90.2069320678711 -16.92460060119629 163.27867126464844  738318.7021666438
0.5289594531059265 0.8012664914131165 -0.8825355172157288 -90.21058654785156 -16.838438034057617 163.19525146484375  738318.7021669205
0.5232758522033691 0.8558505177497864 -0.9340793490409851 -90.21000671386719 -16.756620407104492 163.11439514160156  738318.7021670591
0.5179003477096558 0.9114230871200562 -0.9865818023681641 -90.20637512207031 -16.680376052856445 163.03887939453125  738318.7021672578
0.5128358006477356 0.9679830074310303 -1.040043592453003 -90.20304107666016 -16.601226806640625 162.96434020996094  738318.7021673851
0.5080841779708862 1.025529384613037 -1.0944656133651733 -90.20372009277344 -16.516145706176758 162.88702392578125  738318.7021675117
0.5036481022834778 1.0840615034103394 -1.1498475074768066 -90.20508575439453 -16.431324005126953 162.80638122558594  738318.7021676617
0.49952900409698486 1.1435800790786743 -1.2061902284622192 -90.20572662353516 -16.353647232055664 162.72242736816406  738318.7021677541
1.5 0.0 0.0 0.0 0.0 0.0  738318.7021684113
1.4999961853027344 8.82860604178859e-06 -0.000993985217064619 0.002638278529047966 -0.0050393096171319485 -0.005371259991079569  738318.7021688038
1.499984622001648 3.53694376826752e-05 -0.003975655417889357 0.003659331239759922 -0.007777159567922354 -0.007271549664437771  738318.7021688272
1.4999650716781616 7.86478485679254e-05 -0.00894460454583168 0.0008562394650653005 -0.006974396761506796 -0.005254048388451338  738318.7021690324
1.499936819076538 0.00013782510359305888 -0.015900714322924614 -0.0011344434460625052 -0.003233951050788164 -0.0018710889853537083  738318.7021692402
1.4999001026153564 0.00021344931155908853 -0.024843722581863403 -0.00316294701769948 0.002701690187677741 -0.0024550356902182102  738318.7021694484
1.499854326248169 0.0003053263353649527 -0.035774245858192444 -0.002785518765449524 0.006165951956063509 -0.005116972606629133  738318.7021696839
1.49979829788208 0.00041296123526990414 -0.04869263991713524 -0.002691184636205435 0.006072015967220068 -0.00619638804346323  738318.7021698805
1.4997313022613525 0.0005365011747926474 -0.06359856575727463 -0.0010775504633784294 0.003378594061359763 -0.0025696754455566406  738318.702169999
1.4996542930603027 0.0006760793039575219 -0.08049182593822479 -0.0005718616303056479 -0.0018827833700925112 -0.0016203802078962326  738318.7021701952
1.5 0.0 0.0 0.0 0.0 0.0  738318.7021706518
1.4999966621398926 7.60684361011954e-06 -0.000993512338027358 -0.0010618093656376004 -0.0008585065370425582 -0.0015326554421335459  738318.7021707788
1.4999860525131226 3.053095861105248e-05 -0.003974071703851223 -0.00113759096711874 -0.0003808016190305352 0.0010540580842643976  738318.7021710096
1.4999672174453735 6.90471933921799e-05 -0.008942337706685066 -0.0007883339421823621 0.003494551172479987 0.00230501894839108  738318.7021711597
1.4999397993087769 0.0001238146796822548 -0.015900276601314545 -0.0006431456422433257 0.009063721634447575 -0.0009253110038116574  738318.7021713329
1.4999042749404907 0.000195341621292755 -0.024847622960805893 -0.0013441374758258462 0.01187915913760662 -0.00212989398278296  738318.7021713678
1.499860405921936 0.0002829322183970362 -0.03578217327594757 -0.002054177690297365 0.010561213828623295 -0.00018137057486455888  738318.7021715753
1.4998070001602173 0.00038647351902909577 -0.04870268702507019 -0.0016525897663086653 0.006923110689967871 -3.450247095315717e-05  738318.7021720228
1.4997434616088867 0.0005064525175839663 -0.063608318567276 -0.0010406945366412401 0.0025159819051623344 -9.318502998212352e-05  738318.7021721498
1.499671220779419 0.0006415012758225203 -0.08049950003623962 0.0002345755201531574 0.001084667630493641 -0.0019671088084578514  738318.7021722768
1.5 0.0 0.0 0.0 0.0 0.0  738318.7021726578
1.4999959468841553 7.562241535197245e-06 -0.0009939046576619148 0.0004091620212420821 0.003516174852848053 0.0008011109312064946  738318.702172912
1.499983787536621 3.051773819606751e-05 -0.003976097796112299 0.0001599420211277902 0.008348259143531322 -0.0001815544383134693  738318.7021729734
1.4999638795852661 6.920915620867163e-05 -0.008946807123720646 -0.0009933838155120611 0.011146366596221924 -0.0011848419671878219  738318.7021730888
1.4999363422393799 0.00012358627282083035 -0.015906039625406265 -0.0013678537216037512 0.012278814800083637 -0.0027623826172202826  738318.7021732966
1.4999005794525146 0.00019333891395945102 -0.024853629991412163 0.0001868499384727329 0.012239634059369564 -0.001851883134804666  738318.7021734236
1.4998562335968018 0.0002782546216621995 -0.0357893705368042 0.0013079125201329589 0.010437855497002602 1.5690200598328374e-05  738318.7021735505
1.4998027086257935 0.0003785134758800268 -0.048712946474552155 0.0016252223867923021 0.009372740052640438 -0.0012163319624960423  738318.7021736545
1.4997395277023315 0.0004939757636748254 -0.06362403184175491 0.0025169344153255224 0.005332285072654486 -0.001599916024133563  738318.70217377
1.4996671676635742 0.0006244865944609046 -0.08052181452512741 0.0024837213568389416 0.005289932247251272 -0.0016011969419196248  738318.7021739546
1.5 0.0 0.0 0.0 0.0 0.0  738318.7021742321
1.4999951124191284 8.429986337432638e-06 -0.0009932868415489793 0.0006053998367860913 0.005493180826306343 -0.0003098434244748205  738318.7021744401
1.4999815225601196 3.299948002677411e-05 -0.0039732325822114944 3.0409333703573793e-05 0.007884235121309757 -0.0016537990886718035  738318.7021747169
1.4999606609344482 7.21677060937509e-05 -0.0089409863576293 -0.00015363981947302818 0.009286799468100071 -0.002023237058892846  738318.7021748326
1.4999315738677979 0.00012544679339043796 -0.01589701697230339 -0.00039454008219763637 0.0077205547131598 -0.001179580227471888  738318.7021752363
1.4998929500579834 0.00019395732670091093 -0.024840325117111206 -0.0005010882159695029 0.0066587855108082294 -0.0012860324932262301  738318.7021754863
1.4998455047607422 0.0002790561120491475 -0.03577062115073204 0.00040842455928213894 0.004689658526331186 -0.0022093686275184155  738318.7021756131
1.4997891187667847 0.0003815009549725801 -0.04868854954838753 -0.0002983760496135801 0.003672187915071845 -0.00206158310174942  738318.702175971
1.4997237920761108 0.0005004612030461431 -0.06359453499317169 -0.0008387847919948399 0.0039061347488313913 -0.0016545969992876053  738318.7021761903
1.4996497631072998 0.0006345465080812573 -0.08048813790082932 -0.0014056439977139235 0.005414511077105999 -0.0008297881577163935  738318.7021763634
1.4995667934417725 0.0007835333235561848 -0.09936852008104324 -0.0035809804685413837 0.00806355383247137 -0.0024548633955419064  738318.7021765606
1.5 0.0 0.0 0.0 0.0 0.0  738318.7021770686
1.4999955892562866 8.13455608295044e-06 -0.0009929846273735166 -0.0007461280911229551 -0.0013765902258455753 0.0004920734791085124  738318.7021773687
1.4999821186065674 3.2201383874053136e-05 -0.003972906619310379 -0.002186613157391548 -0.0025205796118825674 0.0006017604609951377  738318.7021774842
1.4999592304229736 7.20964526408352e-05 -0.008941047824919224 -0.0011350266868248582 -0.004847440868616104 0.0005776937468908727  738318.7021777846
1.4999271631240845 0.00012871247599832714 -0.0158975962549448 -0.0013365078484639525 -0.006562327034771442 0.0005479997489601374  738318.7021778885
1.4998867511749268 0.00020197872072458267 -0.024841953068971634 -0.0002402051177341491 -0.005474175326526165 0.00035351287806406617  738318.7021780382
1.4998383522033691 0.00029055183404125273 -0.035773057490587234 -0.0010040906490758061 -0.00403878977522254 0.00045450113248080015  738318.7021782
1.4997820854187012 0.00039366798591800034 -0.048690639436244965 -0.0010346135823056102 -0.00233737681992352 -0.0004359408630989492  738318.7021782232
1.4997186660766602 0.0005124636227265 -0.06359568238258362 -0.0006567829987034202 -0.0004333668330218643 -0.0019510341808199883  738318.7021785348
1.4999958276748657 7.839293175493367e-06 -0.000993147841654718 -2.2298314434010535e-05 0.0013635865179821849 -0.0008051623008213937  738318.7021789439
1.4999831914901733 3.0862531275488436e-05 -0.0039717815816402435 -0.0010664676083251834 0.000838959647808224 -0.0012030246434733272  738318.7021790817
1.4999618530273438 6.821163697168231e-05 -0.008935052901506424 -0.00013105619291309267 0.0006031896336935461 -0.0019888977985829115  738318.7021791972
1.4999330043792725 0.00011995149543508887 -0.01588401570916176 -0.00010922733054030687 0.0015016382094472647 -0.003112331498414278  738318.7021792087
1.4998970031738281 0.00018674079910852015 -0.024820078164339066 -0.0001779296580934897 -1.1678685041260906e-05 -0.002209003083407879  738318.7021794973
1.4998527765274048 0.00026908842846751213 -0.03574336692690849 0.0011339798802509904 -0.0008772403816692531 -0.0014178457204252481  738318.7021796821
1.4998003244400024 0.0003672697057481855 -0.048654429614543915 0.0014693104894831777 0.0009507162030786276 -0.0017583721783012152  738318.7021797287
1.499739170074463 0.00048168428475037217 -0.06355413794517517 0.0006965383072383702 0.0026013024616986513 -0.0029268746729940176  738318.7021800168
1.499668836593628 0.000611842900980264 -0.08044290542602539 0.0012391558848321438 0.0027293451130390167 -0.0016916166059672832  738318.702180063
1.4995899200439453 0.0007571520400233567 -0.09932065010070801 0.0014282427728176117 0.005005889572203159 -0.0008916226215660572  738318.7021803403
1.4995039701461792 0.0009185511735267937 -0.12018607556819916 0.0007370925159193575 0.00425845617428422 -0.0007544340332970023  738318.7021804324
1.4994114637374878 0.0010962432716041803 -0.14303940534591675 0.001731670112349093 0.003378670895472169 -0.0015941100427880883  738318.7021806405
1.499311923980713 0.0012898502172902226 -0.16788116097450256 0.0024858254473656416 0.001446757116355002 -0.0027840009424835443  738318.7021808479
1.5 0.0 0.0 0.0 0.0 0.0  738318.7021810098
1.499995470046997 7.306886800506618e-06 -0.0009923875331878662 0.000473967898869887 0.0011388609418645501 -0.000586613779887557  738318.7021811827
1.4999818801879883 2.9677677957806736e-05 -0.003969541750848293 0.0014047013828530908 0.0023830272257328033 -0.0014543691650032997  738318.702181402
1.4999595880508423 6.768792809452862e-05 -0.008932644501328468 0.0011626589111983776 0.003741529304534197 -0.0006204685196280479  738318.7021815405
1.4999287128448486 0.0001211545750265941 -0.015883294865489006 0.0007946021505631506 0.0024226014502346516 0.0006045972113497555  738318.7021817373
1.4998893737792969 0.0001899201888591051 -0.024821512401103973 0.0010600450914353132 0.0028729268815368414 -0.0009191537974402308  738318.7021818637
1.4998418092727661 0.0002744062221609056 -0.035747237503528595 0.0005852547474205494 0.0025649263989180326 -0.0011840015649795532  738318.7021821176
1.5 0.0 0.0 0.0 0.0 0.0  738318.7021826645
1.4999953508377075 7.445879873557715e-06 -0.0009930202504619956 0.00194500049110502 -0.0014423715183511376 0.0005230212700553238  738318.7021827457
1.499982476234436 2.9534881832660176e-05 -0.003972548060119152 0.0017367745749652386 -0.0015221472131088376 0.00011705693759722635  738318.702182953
1.4999626874923706 6.615000893361866e-05 -0.008939344435930252 0.0006675358745269477 -0.0026790418196469545 0.001193616772070527  738318.7021830453
1.4999353885650635 0.0001178904203698039 -0.01589341275393963 -0.00011053401976823807 -0.0018823642749339342 -0.000970357155892998  738318.7021832417
1.4998992681503296 0.00018520372395869344 -0.024835068732500076 -0.0013089460553601384 -0.0017136099049821496 0.00021477600967045873  738318.7021834148
1.4998548030853271 0.0002684001228772104 -0.035764921456575394 -0.0008522204589098692 0.00047153898049145937 0.0011144033633172512  738318.7021834746
1.4998018741607666 0.00036693611764349043 -0.048682715743780136 -0.0006028718780726194 0.001977556152269244 -0.00027926656184718013  738318.7021837169
1.4997410774230957 0.0004803884366992861 -0.06358782202005386 -0.0008359821513295174 0.002406652783975005 -0.0003378192486707121  738318.7021838209
1.5 0.0 0.0 0.0 0.0 0.0  738318.7021840401
1.499996542930603 7.145700237742858e-06 -0.000993393245153129 0.0010098055936396122 0.00017559799016453326 -0.0013823823537677526  738318.7021843983
1.4999865293502808 2.882684930227697e-05 -0.00397363631054759 0.0010545538971200585 0.0013902131468057632 -0.001709718955680728  738318.7021846292
1.4999696016311646 6.513580592582002e-05 -0.008941407315433025 0.0008345712558366358 0.002323855645954609 -0.00210747797973454  738318.7021846634
1.4999445676803589 0.00011617278505582362 -0.015896623954176903 0.0003673007304314524 0.0004422035126481205 -0.0022696827072650194  738318.7021848828
1.4999110698699951 0.0001824292412493378 -0.024838557466864586 -8.550975326215848e-05 0.0008123598527163267 -0.002258353168144822  738318.7021849636
1.4998682737350464 0.00026420789072290063 -0.03576766699552536 -0.0002205957134719938 0.00102756277192384 -0.0029733760748058558  738318.7021850444
1.4998160600662231 0.00036089838249608874 -0.04868438094854355 -3.938871304853819e-05 0.0020769797265529633 -0.002930537099018693  738318.7021851137
1.4997551441192627 0.00047157800872810185 -0.06358945369720459 -7.332557288464159e-05 0.002489552367478609 -0.003409328404814005  738318.7021854025
1.499684453010559 0.0005955094238743186 -0.08048360049724579 0.0009037551935762167 0.0023364347871392965 -0.003155509475618601  738318.7021854599
1.4996041059494019 0.0007334502879530191 -0.09936577826738358 0.0009039817960001528 0.0033580439630895853 -0.003977375570684671  738318.7021856682
1.4995149374008179 0.0008868778822943568 -0.12023457139730453 0.0005913080531172454 0.003143502166494727 -0.003585775848478079  738318.7021857024
1.5 0.0 0.0 0.0 0.0 0.0  738318.7021861067
1.4999957084655762 6.833528459537774e-06 -0.0009942026808857918 -0.0003180453204549849 -0.0005229576490819454 0.0010980241931974888  738318.7021864068
1.4999840259552002 2.893651617341675e-05 -0.003976276144385338 0.00029322889167815447 0.0007540081860497594 0.0011188071221113205  738318.7021866144
1.4999654293060303 6.810780905652791e-05 -0.008945063687860966 0.0015550387324765325 0.0008652475080452859 0.00112015416380018  738318.7021867528
1.4999380111694336 0.00012406829046085477 -0.015899505466222763 0.0005018695374019444 -0.0017298348248004913 0.002491857623681426  738318.7021869492
1.4999005794525146 0.00019527522090356797 -0.02483876794576645 -3.0669067200506106e-05 -0.0017440136289224029 0.0016089659184217453  738318.7021870532
1.4998542070388794 0.0002808952413033694 -0.03576347976922989 0.0009527410729788244 -0.00297516118735075 0.0026071008760482073  738318.7021871227
1.4997984170913696 0.00038033051532693207 -0.04867523908615112 0.0024156623985618353 -0.0023497939109802246 0.0029770208057016134  738318.7021873419
1.4997320175170898 0.000494401145260781 -0.06357455253601074 0.001723476336337626 -0.0026310726534575224 0.0028598918579518795  738318.7021875958
1.4996556043624878 0.0006252180319279432 -0.08046112954616547 0.0024598166346549988 -0.0034409461077302694 0.0036694793961942196  738318.7021878496
1.4995708465576172 0.0007729255012236536 -0.09933444857597351 0.0013885467778891325 -0.0030340501107275486 0.004848077427595854  738318.7021880109
1.4994776248931885 0.000937038566917181 -0.12019366770982742 0.00223318743519485 -0.0030813817866146564 0.004865538794547319  738318.7021882026
1.5 0.0 0.0 0.0 0.0 0.0  738318.7021885493
1.4999949932098389 8.063846507866401e-06 -0.0009927786886692047 -0.001427078153938055 8.627334318589419e-05 -0.0023134544026106596  738318.7021886876
1.499979853630066 3.24095890391618e-05 -0.0039721583016216755 -0.0011090992484241724 -0.0010255593806505203 -0.0023168381303548813  738318.7021889299
1.4999548196792603 7.31333129806444e-05 -0.008939659222960472 -0.0008003782131709158 -0.00028867373475804925 -0.0023059884551912546  738318.7021889761
1.4999200105667114 0.0001293412351515144 -0.01589496061205864 -0.0003437975829001516 -0.0004288115305826068 -0.002945324406027794  738318.7021891492
1.4998749494552612 0.00020153034711256623 -0.024837104603648186 0.00026963697746396065 -0.0005932895001024008 -0.0027700960636138916  738318.7021891744
1.5 0.0 0.0 0.0 0.0 0.0  738318.7021895307
1.4999957084655762 7.898111107351724e-06 -0.0009941360913217068 0.00016638159286230803 -0.0003413309750612825 -0.002282163128256798  738318.7021896805
1.4999829530715942 3.14895405608695e-05 -0.0039771003648638725 -0.0012127866502851248 -0.0015642266953364015 -0.0019566984847187996  738318.7021899003
1.4999619722366333 7.053141598589718e-05 -0.008948907256126404 7.441448542522267e-05 0.0004567326686810702 -0.0017217816784977913  738318.7021900384
1.499933123588562 0.00012621813220903277 -0.015907805413007736 0.0007766496273688972 -0.0008657442522235215 -0.00098228279966861  738318.7021900965
1.4998955726623535 0.0001990121090784669 -0.02485257387161255 -0.00017580976418685168 -0.00035543099511414766 -0.0011326007079333067  738318.7021902462
1.4998488426208496 0.0002875960781238973 -0.035784319043159485 2.4783406843198463e-05 -0.0007116370834410191 -0.0016913050785660744  738318.7021904308
1.4997931718826294 0.00039170810487121344 -0.04870448261499405 0.0005995158571749926 -4.8433401389047503e-05 -0.0018190857954323292  738318.7021906617
1.4997279644012451 0.0005116374231874943 -0.0636126846075058 0.001116725616157055 0.001194641925394535 -0.002673405921086669  738318.7021908237
1.4996535778045654 0.0006473646499216557 -0.08050794154405594 0.0002607479109428823 0.00037529508699662983 -0.0031381186563521624  738318.7021909277
1.4995702505111694 0.0007982234237715602 -0.0993887409567833 0.00013073498848825693 0.0016364457551389933 -0.0036815288476645947  738318.7021911137
1.4994782209396362 0.0009640768403187394 -0.12025445699691772 -0.0010093151358887553 0.0019296269165351987 -0.003657981753349304  738318.7021912292
1.5 0.0 0.0 0.0 0.0 0.0  738318.7021915641
1.4999946355819702 7.3029150371439755e-06 -0.00099366984795779 -6.808662874391302e-05 0.0013863214990124106 -0.0016364571638405323  738318.7021917608
1.4999793767929077 2.9586159143946134e-05 -0.003975011873990297 0.0007618523668497801 0.002064065309241414 -0.0010755464900285006  738318.7021919686
1.4999561309814453 6.788041355321184e-05 -0.008944219909608364 0.0007071402505971491 0.002139084739610553 -0.0019397162832319736  738318.7021923263
1.499925136566162 0.00012239530042279512 -0.01590033993124962 0.0007919024210423231 0.002498528454452753 -0.0025126321706920862  738318.7021924764
1.4998806715011597 0.00020013877656310797 -0.025845956057310104 0.0008521693525835872 0.0013373217079788446 -0.0013418429298326373  738318.7021927977
1.4998302459716797 0.0002867535804398358 -0.03697424754500389 0.0009509754017926753 0.0030368496663868427 0.0005835533374920487  738318.7021928319
1.4997708797454834 0.000388789689168334 -0.05009128153324127 0.00013579943333752453 0.003616671310737729 0.0013118365313857794  738318.7021929128
1.4997025728225708 0.0005061578704044223 -0.06519664078950882 0.0006159926415421069 0.005685959942638874 0.0012780961114913225  738318.7021930169
1.5 0.0 0.0 0.0 0.0 0.0  738318.7021934323
1.4999951124191284 7.684553565923125e-06 -0.0009932934772223234 -0.0004339951556175947 0.0013418392045423388 -0.00048559540300630033  738318.7021936631
1.4999802112579346 3.081723116338253e-05 -0.003973533399403095 -0.00012184194201836362 0.001684687566012144 -0.000788086443208158  738318.7021939069
1.499955177307129 6.980613397900015e-05 -0.008941156789660454 0.0004477475013118237 0.0013107426930218935 -0.0012913133250549436  738318.7021939303
1.499920129776001 0.00012516792048700154 -0.015896454453468323 -0.0005577621050179005 0.0025173556059598923 -0.001709081931039691  738318.7021941262
1.4998753070831299 0.00019698639516718686 -0.024839863181114197 -0.000259167340118438 0.004186194855719805 -0.0019801906310021877  738318.7021942415
1.4998210668563843 0.00028483584173955023 -0.035771071910858154 -0.0010659800609573722 0.004270544741302729 -0.0032305745407938957  738318.7021944468
1.499757170677185 0.00038904568646103144 -0.04868902266025543 -0.00025490522966720164 0.006501177325844765 -0.002841312438249588  738318.702194506
1.4996834993362427 0.0005102994618937373 -0.06359336525201797 -0.0002344598324270919 0.00717236939817667 -0.0034972645808011293  738318.7021949561
1.4999961853027344 8.01628175395308e-06 -0.0009927893988788128 -0.0019848202355206013 -0.0015606902306899428 -0.001422468340024352  738318.7021951593
1.4999850988388062 3.125215516774915e-05 -0.003971673548221588 -0.0018389394972473383 -0.003265238367021084 -0.0017452231841161847  738318.7021952055
1.4999668598175049 6.907173519721255e-05 -0.00893776211887598 -0.0023499520029872656 -0.004035291727632284 -0.002802290953695774  738318.7021952859
1.4999403953552246 0.00012211236753500998 -0.015891289338469505 -0.0024622983764857054 -0.0021046355832368135 -0.00353490118868649  738318.7021955056
1.499904751777649 0.0001905049430206418 -0.024832550436258316 -0.0011315348092466593 -0.0015825113514438272 -0.003365871263667941  738318.7021956553
1.4998600482940674 0.0002739602350629866 -0.035762134939432144 -0.0015668622218072414 -0.0008521294803358614 -0.004151171538978815  738318.7021957133
1.4998064041137695 0.00037306430749595165 -0.048678815364837646 -0.0028284057043492794 -0.0009114115382544696 -0.004996899515390396  738318.7021959786
1.499744176864624 0.0004873241123277694 -0.06358186900615692 -0.0024930592626333237 -0.0005547405453398824 -0.004328323993831873  738318.7021961197
1.4996733665466309 0.0006160615012049675 -0.08047212660312653 -0.0023367940448224545 -0.0006881943554617465 -0.004747728817164898  738318.7021961727
1.4995936155319214 0.0007604858255945146 -0.0993494987487793 -0.0020083780400455 -0.0014898867812007666 -0.003582986071705818  738318.7021962535
1.4995040893554688 0.0009212842560373247 -0.1202128604054451 -0.001595427980646491 -0.002040550112724304 -0.0037202846724539995  738318.7021963459
1.4994053840637207 0.0010974801843985915 -0.14306263625621796 -0.002777872607111931 -0.0015057777054607868 -0.005791894160211086  738318.7021966691
1.4999960660934448 7.914253728813492e-06 -0.0009937509894371033 -0.0013258547987788916 0.0013247492024675012 -0.0004373200936242938  738318.7021968769
1.4999849796295166 3.1953783036442474e-05 -0.003975403029471636 -0.0020193341188132763 0.001076539047062397 -0.0007740070577710867  738318.7021972464
1.4999668598175049 7.270846253959462e-05 -0.008945446461439133 -0.0010669699404388666 0.0034327993635088205 -0.001459610997699201  738318.702197454
1.499941110610962 0.0001308821956627071 -0.015904000028967857 -0.001536641619168222 0.002412976697087288 -0.0016249868785962462  738318.7021974886
1.4999074935913086 0.00020629315986298025 -0.024851184338331223 -0.0017201949376612902 0.003489271504804492 -0.0020041964016854763  738318.7021976056
1.499864935874939 0.0002977117255795747 -0.035785309970378876 -0.0014121491694822907 0.004012220539152622 -0.00233629927970469  738318.7021976517
1.4998117685317993 0.00040377522236667573 -0.048704877495765686 -0.0023361211642622948 0.002602613065391779 -0.00225804909132421  738318.7021979061
1.4997478723526 0.0005245016072876751 -0.06361082941293716 -0.002419146243482828 0.0014071236364543438 -0.0020171096548438072  738318.7021980211
1.4996734857559204 0.0006605674279853702 -0.08050452917814255 -0.0030202441848814487 0.0022876523435115814 -0.0016588711878284812  738318.7021981712
1.5 0.0 0.0 0.0 0.0 0.0  738318.7021984732
1.4999964237213135 7.597644980705809e-06 -0.0009937284048646688 -0.0003813825314864516 -0.0025073597207665443 -0.0004922530497424304  738318.7021985536
1.4999849796295166 3.0136030545691028e-05 -0.003974985331296921 -0.00036199428723193705 -0.002361976308748126 -0.0006152637652121484  738318.7021986925
1.4999654293060303 6.734405906172469e-05 -0.008944683708250523 -6.926669448148459e-05 -0.0024294930044561625 -0.0011140264105051756  738318.7021987729
1.4999370574951172 0.00011970029299845919 -0.015903551131486893 0.0008877679938450456 -0.0036442268174141645 -0.0006574593135155737  738318.7021990038
1.4998990297317505 0.0001868534745881334 -0.024851713329553604 0.0009938805596902966 -0.0037309613544493914 0.0001401098706992343  738318.702199131
1.4998520612716675 0.0002683621132746339 -0.035787880420684814 0.00102074327878654 -0.004858412314206362 0.0008361974614672363  738318.7021991889
1.4997961521148682 0.00036542510497383773 -0.04871055483818054 0.0002885709691327065 -0.006595177110284567 0.00029630775679834187  738318.7021993041
1.4997309446334839 0.00047926243860274553 -0.06362048536539078 0.000616902019828558 -0.007343900389969349 0.001193766831420362  738318.7021995926
1.4996566772460938 0.0006098028970882297 -0.08051779866218567 0.0021465353202074766 -0.006788358092308044 0.002070759190246463  738318.7021996108
1.5 0.0 0.0 0.0 0.0 0.0  738318.7022002378
1.4999959468841553 8.995921234600246e-06 -0.0009933486580848694 -0.0004166766593698412 0.00025349261704832315 -0.0010958040365949273  738318.7022002726
1.4999831914901733 3.539159661158919e-05 -0.003972864244133234 -0.00024341544485650957 -5.251294351182878e-05 -8.103170694084838e-05  738318.7022004456
1.499961256980896 7.724613533355296e-05 -0.008938750252127647 -0.0003492313262540847 0.0014793361769989133 -0.0018410006305202842  738318.7022006649
1.4999303817749023 0.00013345241313800216 -0.015891918912529945 0.0006207103142514825 0.003521325532346964 -0.001286559971049428  738318.7022008621
1.4998854398727417 0.00021224511147011071 -0.025835728272795677 0.0006442509475164115 0.001553938607685268 -0.002179035684093833  738318.7022010703
1.499834418296814 0.0002996507682837546 -0.03696388006210327 -0.0004315755213610828 0.0014022913528606296 -0.002032831311225891  738318.7022011857
1.4997743368148804 0.0004026808310300112 -0.05008132755756378 -0.0008382502128370106 0.00017865814152173698 -0.0007889121188782156  738318.7022013012
1.4997045993804932 0.0005222013569436967 -0.06518673151731491 -0.0010074308374896646 -0.0002033402561210096 -0.0016104162205010653  738318.7022014285
1.4996246099472046 0.0006577864987775683 -0.08227987587451935 0.00012897516717202961 -0.0007893709116615355 -0.0012828151229768991  738318.7022015436
1.5 0.0 0.0 0.0 0.0 0.0  738318.7022016939
1.4999960660934448 8.252806765085552e-06 -0.0009921672753989697 1.5965097190928645e-05 -0.0009342363337054849 0.0024221751373261213  738318.7022019938
1.4999839067459106 3.2977830414893106e-05 -0.003969898913055658 0.0008489649626426399 -0.0015827041352167726 0.002566463779658079  738318.7022022709
1.499963641166687 7.444062794093043e-05 -0.008934883400797844 0.0014531129272654653 -0.0024559006560593843 0.002827554475516081  738318.7022024213
1.4999346733093262 0.00013225091970525682 -0.015887174755334854 0.00036291684955358505 -0.0014211736852303147 0.0025331005454063416  738318.702202467
1.4998958110809326 0.00020487233996391296 -0.024826858192682266 0.00015237348270602524 -0.0021285496186465025 0.0019042815547436476  738318.7022027445
1.499846339225769 0.0002914141514338553 -0.035754360258579254 0.00017704170022625476 -0.0011489244643598795 0.001815301482565701  738318.7022030617
1.4997872114181519 0.00039292179280892015 -0.04867041856050491 -0.0005995735991746187 -0.0020502046681940556 0.0023935113567858934  738318.7022030797
1.4997189044952393 0.0005109065677970648 -0.06357553601264954 -0.0008290746482089162 -0.0018902372103184462 0.0009892501402646303  738318.7022032118
1.4999946355819702 8.329267984663602e-06 -0.000994362635537982 0.00044040518696419895 -0.0008445972925983369 0.0015973305562511086  738318.7022035017
1.499979019165039 3.253556496929377e-05 -0.003977053798735142 0.00036057355464436114 -0.0009806090965867043 0.0016326786717399955  738318.7022037326
1.4999544620513916 7.098646165104583e-05 -0.008947087451815605 0.000541084969881922 -0.001529273227788508 0.0010883748764172196  738318.7022038479
1.49992036819458 0.00012307878932915628 -0.01590288057923317 0.0002768100530374795 -0.00028457032749429345 0.001070644473657012  738318.702203975
1.499875783920288 0.00018962414469569921 -0.024844396859407425 0.0009098243899643421 -0.0012334852945059538 0.001921508344821632  738318.70220416
1.4998215436935425 0.00027057522675022483 -0.035773105919361115 0.0008378734928555787 -0.0019446566002443433 0.0017934414790943265  738318.7022045675
1.499758243560791 0.0003656010958366096 -0.048689406365156174 0.0017132931388914585 -0.0006899155559949577 0.001865605590865016  738318.7022046256
1.4996857643127441 0.0004754481778945774 -0.06359241157770157 0.001374916872009635 0.0010806202189996839 0.0010944036766886711  738318.7022049023
1.4996041059494019 0.000600984029006213 -0.08048198372125626 0.0023259951267391443 0.00104363146238029 4.906214599031955e-05  738318.7022049254
1.4995131492614746 0.0007425270741805434 -0.09935877472162247 0.0023478108923882246 -0.0001462146028643474 0.000539997301530093  738318.7022050639
1.4994134902954102 0.0008992333896458149 -0.1202227920293808 0.002937538782134652 -0.0006013636011630297 0.0010217626113444567  738318.7022054106
1.4993053674697876 0.00107078836299479 -0.14307308197021484 0.0033070624340325594 -0.00017348537221550941 0.0012314061168581247  738318.7022055268
1.5 0.0 0.0 0.0 0.0 0.0  738318.7022061959
1.4999949932098389 6.833427960373228e-06 -0.0009945196798071265 -0.000687332998495549 0.0020437929779291153 -0.0015791193582117558  738318.7022064152
1.499981164932251 2.848143230949063e-05 -0.0039769914001226425 0.0006685378029942513 0.0035943964030593634 -0.002404886530712247  738318.7022065695
1.499959111213684 6.662843225058168e-05 -0.008946377784013748 0.0013480681227520108 0.003514170879498124 -0.0024950173683464527  738318.7022067887
1.4999284744262695 0.00012223600060679018 -0.015902860090136528 0.0022552823647856712 0.003057326888665557 -0.0028121862560510635  738318.7022069503
1.4998890161514282 0.000195441345567815 -0.024846546351909637 0.0016234487993642688 0.0034536058083176613 -0.002894274890422821  738318.702207112
1.4998408555984497 0.0002859468513634056 -0.03577808290719986 0.0011718276655301452 0.0028948266990482807 -0.0033463838044553995  738318.7022072508
1.4997843503952026 0.0003926316276192665 -0.04869704321026802 0.0008730694535188377 0.003970165271311998 -0.002682610647752881  738318.7022075393
1.4997191429138184 0.0005134304519742727 -0.06360229849815369 0.0014010894810780883 0.0032249551732093096 -0.0020256650168448687  738318.7022075737
1.499925136566162 0.00011201284360140562 -0.01589946076273918 0.00010587934229988605 -0.001711396616883576 0.00022824201732873917  738318.702208179
1.499882698059082 0.00017592973017599434 -0.024843156337738037 0.0006149284308776259 -0.002879772335290909 0.0018226511310786009  738318.702208248
1.499830722808838 0.0002555716782808304 -0.0357741117477417 0.0004884296795353293 -0.002774714259430766 0.002434958703815937  738318.702208502
1.4997698068618774 0.00035054184263572097 -0.04869162663817406 0.0008803186356090009 -0.002975138835608959 0.0020992355421185493  738318.7022087561
1.4997003078460693 0.00046022870810702443 -0.0635952353477478 8.051219992921688e-06 -0.003351808525621891 0.0005750040290877223  738318.7022088487
1.4996213912963867 0.0005849571316502988 -0.08048593997955322 0.00017273712728638202 -0.0032712649554014206 0.0001658827532082796  738318.7022091835
1.4999828338623047 3.296620343462564e-05 -0.003976193256676197 -0.0006135719013400376 -0.00031617627246305346 0.0021730356384068727  738318.7022097032
1.4999608993530273 7.245437882374972e-05 -0.008946932852268219 0.0002651055692695081 -0.0009522461332380772 0.000353631388861686  738318.7022102289
1.499925971031189 0.00013377687719184905 -0.016711322590708733 0.00020838498312514275 -0.0011302413186058402 0.0009114673011936247  738318.7022102406
1.499832272529602 0.00029266715864650905 -0.03699098527431488 -0.0004556393250823021 0.00019968165725003928 0.0010921465000137687  738318.7022104597
1.4997707605361938 0.00039703029324300587 -0.05011223629117012 -0.00044503339449875057 -0.0008872741018421948 0.0006057658465579152  738318.7022105982
1.4996992349624634 0.0005174604593776166 -0.0652201771736145 -0.0020074767526239157 -0.0007811561226844788 0.0009475418482907116  738318.702210806
1.4996176958084106 0.0006533301784656942 -0.08231478929519653 -0.0022398021537810564 -0.0013741449220106006 0.0015471866354346275  738318.7022110253
1.4998912811279297 0.00018222499056719244 -0.022885354235768318 -0.0034347237087786198 -0.0033723327796906233 -0.0010361958993598819  738318.7022114438
1.4997130632400513 0.00047910521971061826 -0.06044480949640274 -0.0027744953986257315 -0.002357910620048642 -0.002249237149953842  738318.7022115361
1.4996317625045776 0.0006098294397816062 -0.07693889737129211 -0.0032386761158704758 -0.002115081762894988 -0.0020597055554389954  738318.7022116631
1.4999827146530151 2.985550236189738e-05 -0.003973321057856083 -4.1859002521960065e-05 0.0025352633092552423 -0.002057246631011367  738318.7022121018
1.4999606609344482 6.617705366807058e-05 -0.0089393500238657 -0.0006736349896527827 0.0026448010466992855 -0.0023979712277650833  738318.7022121826
1.499929428100586 0.0001168506860267371 -0.015891781076788902 -0.0013955237809568644 0.0019364425679668784 -0.0017043431289494038  738318.7022125537
