% x y z r p yw  738318.7013218672
-0.2584518492221832 0.10191330313682556 -0.4801028072834015 -177.27615356445312 39.40967559814453 -19.490100860595703  738318.701361457
-0.15668773651123047 0.0313248410820961 -0.38152867555618286 178.05007934570312 46.028377532958984 -3.71187162399292  738318.7013615257
-0.19159018993377686 0.027054019272327423 -0.39798086881637573 177.88876342773438 45.9813346862793 -3.6484243869781494  738318.7013616402
-0.22724610567092896 0.022833945229649544 -0.41473129391670227 177.74417114257812 45.97798156738281 -3.5879695415496826  738318.7013617539
-0.26365840435028076 0.018666885793209076 -0.43178388476371765 177.60528564453125 46.01981735229492 -3.5227224826812744  738318.70136188
-0.30082035064697266 0.014557864516973495 -0.44913509488105774 177.46209716796875 46.08491516113281 -3.451582193374634  738318.7013619875
-0.33872225880622864 0.010512745007872581 -0.46677619218826294 177.31654357910156 46.133277893066406 -3.3866679668426514  738318.7013621122
-0.3773559033870697 0.0065346150659024715 -0.4846966862678528 177.16583251953125 46.14490509033203 -3.3250021934509277  738318.7013622283
-0.41671741008758545 0.0026229838840663433 -0.502890944480896 177.00669860839844 46.11836242675781 -3.2597358226776123  738318.7013623347
-0.45681020617485046 -0.0012218733318150043 -0.5213638544082642 176.84841918945312 46.067832946777344 -3.1962506771087646  738318.7013624507
-0.4976423382759094 -0.004997505806386471 -0.5401250720024109 176.691650390625 46.02595138549805 -3.1356115341186523  738318.7013627266
-0.5392211675643921 -0.008701357990503311 -0.5591822862625122 176.537109375 46.015907287597656 -3.0726771354675293  738318.7013627955
-0.5815504789352417 -0.012331606820225716 -0.5785386562347412 176.38653564453125 46.038909912109375 -3.006195068359375  738318.7013628302
-0.3981834948062897 -0.11601157486438751 -0.4897691011428833 164.8035125732422 51.67558288574219 22.427560806274414  738318.7013629226
-0.44021618366241455 -0.12830056250095367 -0.5118235945701599 164.6389617919922 51.683563232421875 22.5173282623291  738318.7013630384
-0.4830637574195862 -0.14066268503665924 -0.5342520475387573 164.482177734375 51.670772552490234 22.59337615966797  738318.7013631449
-0.5267243385314941 -0.15309232473373413 -0.5570520758628845 164.32859802246094 51.62739562988281 22.65871238708496  738318.7013632696
-0.5711988210678101 -0.1655876338481903 -0.5802253484725952 164.16700744628906 51.56926345825195 22.723054885864258  738318.7013633846
-0.6164911985397339 -0.17815010249614716 -0.6037776470184326 164.0087127685547 51.51288604736328 22.78452491760254  738318.7013634997
-0.6626059412956238 -0.19078153371810913 -0.6277139782905579 163.85369873046875 51.471534729003906 22.848655700683594  738318.701363605
-0.7095463871955872 -0.20348238945007324 -0.6520364284515381 163.69650268554688 51.45427703857422 22.924665451049805  738318.7013637688
-0.4861522614955902 -0.3271302878856659 -0.5796489715576172 143.20521545410156 51.467132568359375 61.29610824584961  738318.7013638393
-0.5297475457191467 -0.35399097204208374 -0.6082572937011719 143.07122802734375 51.42414855957031 61.35905075073242  738318.7013639552
-0.5741773247718811 -0.3811424970626831 -0.6373350024223328 142.94302368164062 51.37205505371094 61.40777587890625  738318.7013640743
-0.6194416284561157 -0.40858182311058044 -0.666879415512085 142.8239288330078 51.30403137207031 61.43754196166992  738318.7013641958
-0.6655417680740356 -0.4363081157207489 -0.6968913674354553 142.71246337890625 51.220699310302734 61.4552116394043  738318.7013643002
-0.7124800682067871 -0.46432262659072876 -0.7273739576339722 142.6051483154297 51.1360969543457 61.469242095947266  738318.7013644171
-0.7602589130401611 -0.49262794852256775 -0.7583303451538086 142.4931182861328 51.06260299682617 61.493324279785156  738318.7013645216
-0.8088789582252502 -0.5212254524230957 -0.7897627949714661 142.36962890625 51.002845764160156 61.534507751464844  738318.7013646498
-0.8583400845527649 -0.5501137971878052 -0.8216714859008789 142.24058532714844 50.952667236328125 61.58837890625  738318.7013647815
-0.5678194761276245 -0.8262602090835571 -0.7945853471755981 122.23963928222656 35.492374420166016 112.56719970703125  738318.7013648858
-0.5980919003486633 -0.8859885931015015 -0.8309099674224854 122.1869125366211 35.40778732299805 112.54341888427734  738318.7013650021
-0.6290293335914612 -0.9463593363761902 -0.8677413463592529 122.14221954345703 35.31564712524414 112.50350952148438  738318.7013651102
-0.6606329083442688 -1.007370948791504 -0.9050796031951904 122.1006088256836 35.21826934814453 112.45514678955078  738318.7013652313
-0.6929032802581787 -1.0690244436264038 -0.9429256916046143 122.0595703125 35.11872863769531 112.40482330322266  738318.7013653424
-0.7258409261703491 -1.1313210725784302 -0.9812812209129333 122.01512145996094 35.02442169189453 112.36177825927734  738318.7013654584
-0.7594451308250427 -1.1942607164382935 -1.0201472043991089 121.96509552001953 34.93766403198242 112.33190155029297  738318.7013655758
-0.7937158346176147 -1.257842779159546 -1.0595245361328125 121.91116333007812 34.8554801940918 112.31237030029297  738318.7013656901
-0.8286562561988831 -1.3220652341842651 -1.0994130373001099 121.85974884033203 34.77340316772461 112.29289245605469  738318.7013658074
-0.8642705082893372 -1.3869245052337646 -1.139810562133789 121.80887603759766 34.687625885009766 112.2665786743164  738318.7013659229
-0.9005605578422546 -1.4524177312850952 -1.1807160377502441 121.76202392578125 34.59652328491211 112.2289047241211  738318.7013660611
1.5 0.0 0.0 0.0 0.0 0.0  738318.701366154
1.4999890327453613 1.1917161828023382e-05 -0.0009936772985383868 -0.0020728339441120625 0.012564258649945259 -0.0006450839573517442  738318.7013662687
1.4999560117721558 4.774169792653993e-05 -0.003974410239607096 -0.0030400732066482306 0.02116248942911625 -0.0008633804973214865  738318.7013663864
1.499900221824646 0.00010714683594414964 -0.008941585198044777 -0.002935517579317093 0.02041361667215824 -0.00017314485739916563  738318.7013664996
1.499821662902832 0.0001898369228001684 -0.015895621851086617 0.0006494479603134096 0.013257177546620369 -0.0012001587310805917  738318.7013666175
1.499721884727478 0.00029564357828348875 -0.02483755722641945 0.0023538977839052677 0.004450940527021885 -0.0018900169525295496  738318.7013667334
1.4996023178100586 0.00042400899110361934 -0.03576643764972687 0.004214609041810036 -0.0016097339102998376 -0.002978855511173606  738318.7013668476
1.4994641542434692 0.0005751342978328466 -0.048681117594242096 0.0041024349629879 -0.0004235046508256346 -0.0031274601351469755  738318.7013669644
1.4993077516555786 0.000749527127481997 -0.06358202546834946 0.0022172564640641212 0.008566715754568577 -0.003915989305824041  738318.701367197
1.4991310834884644 0.0009483883623033762 -0.08046993613243103 -0.0005913597997277975 0.01832117699086666 -0.004021925386041403  738318.7013672327
1.5 0.0 0.0 0.0 0.0 0.0  738318.7013673111
1.499988079071045 1.2178831639175769e-05 -0.0009928515646606684 3.2435338653158396e-05 -0.001236496027559042 -0.0017206467455253005  738318.701367426
1.4999529123306274 4.954550604452379e-05 -0.0039715152233839035 0.0006065134657546878 -0.007983854040503502 -0.0005052146152593195  738318.701367543
1.499896764755249 0.00011245593486819416 -0.008937056176364422 0.001347702112980187 -0.016310682520270348 -0.0002505186712369323  738318.7013676566
1.4998221397399902 0.00019907517707906663 -0.015890169888734818 0.003031462896615267 -0.01979154907166958 -0.000565828348044306  738318.7013677856
1.4997293949127197 0.0003078018198721111 -0.024830598384141922 0.0018766990397125483 -0.018054701387882233 0.0005357947666198015  738318.7013678906
1.499617099761963 0.0004392464179545641 -0.03575874865055084 0.0017510807374492288 -0.011983877047896385 7.023147190921009e-05  738318.7013680157
1.499483585357666 0.0005943890428170562 -0.0486748032271862 0.0015263073146343231 -0.005030027125030756 -0.0005399435176514089  738318.7013681189
1.4993289709091187 0.0007731739897280931 -0.06357858330011368 7.2941038524732e-05 -0.00010295838001184165 -0.0026205768808722496  738318.7013682297
1.499152660369873 0.0009755464270710945 -0.08046957850456238 0.0001276553957723081 -0.0011503661517053843 -0.0034027821384370327  738318.7013683469
1.5 0.0 0.0 0.0 0.0 0.0  738318.7013688767
1.499989628791809 1.107580101233907e-05 -0.0009927952196449041 0.0014274765271693468 -0.0044473386369645596 -0.0003155618906021118  738318.701369027
1.4999587535858154 4.4344116759020835e-05 -0.003971903584897518 0.001443903660401702 -0.0071987612172961235 -0.00111166771966964  738318.7013690845
1.4999076128005981 0.00010009977995650843 -0.008938081562519073 0.0012273412430658937 -0.005787774920463562 -0.0020849707070738077  738318.7013691887
1.4998359680175781 0.00017825307440944016 -0.015890518203377724 0.0005490494077093899 -0.00038987616426311433 -0.0023206747137010098  738318.701369327
1.4997434616088867 0.0002788437996059656 -0.024828968569636345 -0.0007325253100134432 0.005423796363174915 -0.00373458000831306  738318.7013694082
1.499629020690918 0.00040274631464853883 -0.035754624754190445 -0.002122629201039672 0.00939267873764038 -0.004403738304972649  738318.701369516
1.4994916915893555 0.0005501708365045488 -0.04866786673665047 -0.0019424899946898222 0.008851776830852032 -0.003507624613121152  738318.7013696313
1.4993313550949097 0.0007207377348095179 -0.06356747448444366 -0.0017682835459709167 0.006172469351440668 -0.004296064842492342  738318.7013698276
1.4991481304168701 0.0009143917704932392 -0.08045310527086258 -0.001589923514984548 0.002131375716999173 -0.005190779455006123  738318.7013700701
1.5 0.0 0.0 0.0 0.0 0.0  738318.7013704509
1.4999899864196777 1.0973041753459256e-05 -0.0009929700754582882 -2.7077288905275054e-05 0.0009454410756006837 0.0005801891093142331  738318.7013708203
1.4999603033065796 4.3853287934325635e-05 -0.0039734081365168095 0.0004304548492655158 0.004877950996160507 0.00039721259963698685  738318.7013709011
1.4999103546142578 9.936335845850408e-05 -0.008942455053329468 -0.00018788341549225152 0.008684984408318996 0.0006503924960270524  738318.7013709935
1.4998390674591064 0.0001792862603906542 -0.0158986859023571 -0.0009094182169064879 0.01077127456665039 0.0008974345400929451  738318.7013711436
1.4997456073760986 0.0002845793205779046 -0.02484159730374813 -0.0011479374952614307 0.010058941319584846 0.0012186645762994885  738318.7013713744
1.4996293783187866 0.0004144638078287244 -0.03577183187007904 -0.0008501893025822937 0.00836374331265688 0.0022950470447540283  738318.7013714436
1.4994916915893555 0.0005679709720425308 -0.04868923872709274 -0.0002931737690232694 0.006188082043081522 0.0021138491574674845  738318.7013715475
1.4993332624435425 0.0007440238259732723 -0.0635930523276329 -0.0006605972885154188 0.005709223449230194 0.0014280301984399557  738318.7013716514
1.4991543292999268 0.0009421237045899034 -0.08048313111066818 -0.0013980444055050611 0.006353349890559912 0.000354596326360479  738318.7013716976
1.4989548921585083 0.0011627123458310962 -0.09935946762561798 -0.002976582618430257 0.009328022599220276 0.0005053782369941473  738318.7013717553
1.4987339973449707 0.0014056296786293387 -0.12022040039300919 -0.003408487420529127 0.010823903605341911 0.00045901263365522027  738318.7013719977
1.5 0.0 0.0 0.0 0.0 0.0  738318.7013722978
1.4999874830245972 1.0493363333807793e-05 -0.0009937018621712923 -0.00010595246567390859 -0.0006285313284024596 -0.00028923104400746524  738318.7013724709
1.4999500513076782 4.175957656116225e-05 -0.003975131548941135 -0.0007793193217366934 -0.0034618359059095383 0.0002816235937643796  738318.7013725287
1.4998893737792969 9.319511445937678e-05 -0.008943716064095497 0.001023998367600143 -0.005351059604436159 9.954393317457289e-05  738318.7013727251
1.499807357788086 0.00016526386025361717 -0.015898369252681732 7.71338673075661e-05 -0.006754025351256132 -0.00016511142894160002  738318.7013729673
1.4997044801712036 0.00025908034876920283 -0.024840258061885834 -0.0011900942772626877 -0.006839982699602842 0.000389633554732427  738318.7013730019
1.4995802640914917 0.0003748944727703929 -0.03577043116092682 -0.0014485323335975409 -0.005030466243624687 0.0002588581701274961  738318.7013730828
1.4994345903396606 0.0005129977944307029 -0.04868878424167633 -0.0020167184993624687 -0.0017516793450340629 -0.0005378103815019131  738318.7013732212
1.4992679357528687 0.0006741216639056802 -0.06359509378671646 -0.0014546472812071443 -0.0010834330460056663 -0.0015346839791163802  738318.7013733021
1.4999885559082031 1.1126187928311992e-05 -0.0009941854514181614 0.002418058691546321 -0.00154596078209579 0.0008373493328690529  738318.7013735906
1.4999538660049438 4.53971661045216e-05 -0.003975928295403719 0.00382011360488832 -0.003789750626310706 0.002868580399081111  738318.7013739024
1.4998964071273804 0.00010406068759039044 -0.008944071829319 0.005636620335280895 -0.0033626582007855177 0.0019385676132515073  738318.7013740985
1.4998176097869873 0.00018702454690355808 -0.0158991701900959 0.005777095444500446 -0.002131078625097871 0.0011425841366872191  738318.7013742025
1.4997178316116333 0.0002927750174421817 -0.02484232559800148 0.0062651620246469975 -0.000859656895045191 0.0010608279844745994  738318.7013743526
1.499596357345581 0.00042150996159762144 -0.03577284514904022 0.006592874880880117 0.00024051369109656662 0.0014924297574907541  738318.7013745141
1.4994534254074097 0.0005748984985984862 -0.04868999123573303 0.007048989180475473 0.0015232078731060028 0.0009619408519938588  738318.7013747336
1.4992880821228027 0.0007524759275838733 -0.06359517574310303 0.00760758388787508 0.0041004871018230915 -0.0002300852065673098  738318.7013749413
1.499098539352417 0.0009522456093691289 -0.08048885315656662 0.007083885371685028 0.004787421319633722 -0.00018247216939926147  738318.7013750798
1.4988857507705688 0.0011740815825760365 -0.09936907142400742 0.007249502465128899 0.004472129046916962 0.00023915845667943358  738318.7013752875
1.4999891519546509 1.1874174560944084e-05 -0.0009930969681590796 0.0019199707312509418 -0.0004213183419778943 -0.0007452902500517666  738318.7013755195
1.49995756149292 4.714872193289921e-05 -0.003973335027694702 0.0009991636034101248 -0.0008827174897305667 -0.0014391109580174088  738318.7013757388
1.499906063079834 0.00010580010712146759 -0.008942374028265476 0.001222305465489626 -6.104297881392995e-06 -0.0013392326654866338  738318.7013758312
1.4998334646224976 0.00018831240595318377 -0.015900012105703354 0.0017548707546666265 0.0024992062244564295 -0.0013534108875319362  738318.7013759812
1.4997388124465942 0.0002942839346360415 -0.024844985455274582 0.0010067191906273365 0.004648983012884855 -0.0016213684575632215  738318.7013761433
1.4996225833892822 0.00042365380795672536 -0.0357779935002327 0.0011891736648976803 0.00639050267636776 -0.002581777051091194  738318.701376351
1.499484896659851 0.0005770128918811679 -0.04869908466935158 0.0016351458616554737 0.006917146034538746 -0.00279273116029799  738318.7013764549
1.4993259906768799 0.0007540732040069997 -0.06360737234354019 0.0020417808555066586 0.006622576154768467 -0.003411834826692939  738318.7013767789
1.4991458654403687 0.0009543378837406635 -0.08050358295440674 0.0015510281082242727 0.006361473351716995 -0.003136605955660343  738318.7013768831
1.4999895095825195 1.1501103472255636e-05 -0.0009930097730830312 -0.000351985014276579 0.0016331126680597663 -0.0009608098189346492  738318.7013771601
1.499957799911499 4.605023059411906e-05 -0.003972608596086502 -0.0017113202484324574 0.003094144631177187 -0.0019343621097505093  738318.7013774716
1.4999051094055176 0.00010352415119996294 -0.008939787745475769 -0.0011166194453835487 0.003959122579544783 -0.0025301931891590357  738318.7013774831
1.499832034111023 0.00018380169058218598 -0.015893982723355293 -0.0016061339993029833 0.005107023287564516 -0.0027916990220546722  738318.7013776565
1.4997384548187256 0.00028636405477300286 -0.024833988398313522 -0.0013242731802165508 0.004889112897217274 -0.0030012137722223997  738318.7013779333
1.499623417854309 0.0004112764145247638 -0.03575989231467247 -0.0007997624925337732 0.005636383779346943 -0.0015618293546140194  738318.70137813
1.4994866847991943 0.0005590340588241816 -0.04867208003997803 -0.000945602310821414 0.005960369482636452 -0.0017811841098591685  738318.7013784129
1.4993292093276978 0.0007301454897969961 -0.06357120722532272 -0.0002735390153247863 0.006168825086206198 -0.002582062501460314  738318.7013785398
1.499151587486267 0.0009253223543055356 -0.08045782148838043 -0.00032068550353869796 0.006309045013040304 -0.00411600898951292  738318.7013786553
1.4989523887634277 0.0011431468883529305 -0.0993322804570198 -0.0008307236712425947 0.0059498269110918045 -0.003154977224767208  738318.7013787823
1.4987305402755737 0.0013818073784932494 -0.12019605189561844 -0.002030450152233243 0.007046406157314777 -0.003094700863584876  738318.701378967
1.5 0.0 0.0 0.0 0.0 0.0  738318.7013792555
1.4999889135360718 1.1076943337684497e-05 -0.0009930487722158432 -0.0011871582828462124 0.0004757711722049862 0.0018228227272629738  738318.7013796252
1.4999547004699707 4.33780878665857e-05 -0.003973015118390322 -1.4044990166439675e-05 0.001251484383828938 0.0015435433015227318  738318.7013799135
1.499896764755249 9.676456829765812e-05 -0.008940130472183228 0.0005092309438623488 0.0020827020052820444 0.0012649644631892443  738318.7013799951
1.499815821647644 0.00017204417963512242 -0.01589280553162098 0.0007741174194961786 0.004194480367004871 0.00034110178239643574  738318.7013800871
1.499712347984314 0.000269399635726586 -0.02483023703098297 -0.0003126138763036579 0.004426543600857258 0.000554738799110055  738318.7013802603
1.4995872974395752 0.0003895559930242598 -0.035753604024648666 -0.0006183969671837986 0.006982302293181419 0.00024700589710846543  738318.7013804452
1.4994418621063232 0.0005332911387085915 -0.04866432398557663 -0.0027969866059720516 0.008911432698369026 -0.0014329769182950258  738318.7013805492
1.4992759227752686 0.0006995859439484775 -0.06356294453144073 -0.004284321796149015 0.011503019370138645 -0.0022713630460202694  738318.701380653
1.499089002609253 0.0008872168837115169 -0.08044980466365814 -0.00476881256327033 0.01110693160444498 -0.0025600360240787268  738318.7013808258
1.4988582134246826 0.0011191748781129718 -0.10132116079330444 -0.004971267655491829 0.012719698250293732 -0.004391947295516729  738318.7013809644
1.4986255168914795 0.0013548026327043772 -0.12238170206546783 -0.0035870380233973265 0.012194503098726273 -0.005414252169430256  738318.7013811953
1.4983710050582886 0.001614158507436514 -0.14542900025844574 -0.0020369261037558317 0.012805304490029812 -0.0067406389862298965  738318.7013815531
1.49998939037323 1.0352969184168614e-05 -0.0009936215355992317 -0.0029019794892519712 0.0019648971501737833 -0.000666920910589397  738318.701381946
1.4999573230743408 4.1858475015033036e-05 -0.003974291030317545 -0.004139968194067478 0.0030442418064922094 -0.0014611616497859359  738318.7013820034
1.4999032020568848 9.551658149575815e-05 -0.008942099288105965 -0.0051918067038059235 0.0032923545222729445 -0.0007393832202069461  738318.7013820958
1.499826431274414 0.0001713169040158391 -0.015897328034043312 -0.004781397525221109 0.003486734814941883 -0.001397826592437923  738318.7013821653
1.4997272491455078 0.0002691025729291141 -0.02484048530459404 -0.004501919727772474 -0.001158628729172051 -0.0016333198873326182  738318.7013822341
1.5 0.0 0.0 0.0 0.0 0.0  738318.701382465
1.4999582767486572 4.050473216921091e-05 -0.00397198973223567 0.003493609605357051 0.024262527003884315 0.001170808682218194  738318.7013826959
1.4999103546142578 9.290945308748633e-05 -0.008938007988035679 0.0018724814290180802 0.01911511830985546 -0.0015449614729732275  738318.7013828113
1.499842643737793 0.00016869438695721328 -0.015892554074525833 -0.001742578111588955 0.01513612736016512 -0.0008621123852208257  738318.7013829268
1.4997518062591553 0.0002666176587808877 -0.024835333228111267 0.0017028599977493286 0.021663757041096687 0.0009259713697247207  738318.7013830191
1.499642014503479 0.0003871701774187386 -0.03576444834470749 -0.0004172802437096834 0.01270333956927061 0.0011002556420862675  738318.7013831346
1.4995120763778687 0.0005316465976648033 -0.04867931082844734 0.0006271674646995962 0.007891874760389328 -8.497997623635456e-05  738318.7013832269
1.499358892440796 0.00070039345882833 -0.06358110159635544 0.004605812486261129 0.01355766225606203 0.0013419195311143994  738318.7013834186
1.499185562133789 0.0008932206546887755 -0.08047141134738922 0.0027420136611908674 0.012666771188378334 0.0030274977907538414  738318.7013836034
1.498991847038269 0.0011080635013058782 -0.0993511751294136 0.00039024383295327425 0.012991984374821186 0.003598961280658841  738318.701383638
1.4987739324569702 0.0013438040623441339 -0.12021976709365845 -0.0012264684773981571 0.020119113847613335 0.0020102811977267265  738318.7013840192
1.5 0.0 0.0 0.0 0.0 0.0  738318.7013846076
1.4999885559082031 1.1941258890146855e-05 -0.0009938618168234825 0.0011947875609621406 -0.0057327961549162865 0.0011239942396059632  738318.7013848732
1.4999533891677856 4.7692628868389875e-05 -0.003976030740886927 0.0016057771863415837 -0.010328956879675388 0.001637133420445025  738318.7013852657
1.4998960494995117 0.00010624215065035969 -0.008947056718170643 0.001662452588789165 -0.013158351182937622 0.00023385426902677864  738318.7013854849
1.4998188018798828 0.00018637976609170437 -0.01590537838637829 0.0013751003425568342 -0.013932060450315475 0.0013159271329641342  738318.7013856123
1.4997204542160034 0.0002878625818993896 -0.02484877221286297 0.00046546731027774513 -0.007816704921424389 0.0012536462163552642  738318.7013857051
1.4995983839035034 0.0004100886872038245 -0.03577793017029762 -0.0008089530165307224 -0.0026604104787111282 0.0009286513668484986  738318.7013857976
1.4994510412216187 0.0005524137523025274 -0.048695191740989685 -0.0003498033620417118 0.0031829727813601494 -0.0007300912984646857  738318.7013859246
1.4992785453796387 0.0007160597597248852 -0.06360195577144623 -0.0011594482930377126 0.0022217435762286186 -0.0012088377261534333  738318.7013860284
1.4990811347961426 0.0009027674095705152 -0.08049680292606354 -0.00010133712930837646 -0.0031646231655031443 -0.0014098540414124727  738318.7013861553
1.4988600015640259 0.0011132401414215565 -0.09937667101621628 0.0012071190867573023 -0.004879181273281574 -0.0008582196896895766  738318.7013865367
1.4999909400939941 1.1480814464448486e-05 -0.0009927332866936922 0.00024796355864964426 -0.003703346010297537 -0.0011992728104814887  738318.7013867325
1.4999632835388184 4.6043704060139135e-05 -0.00397251732647419 0.0002577640989329666 -0.006977613549679518 -0.00020106841111555696  738318.7013868768
1.4999160766601562 0.00010333934187656268 -0.008941125124692917 -0.00010131555609405041 -0.0025356558617204428 -0.00024126229982357472  738318.7013869345
1.4998472929000854 0.00018258829368278384 -0.015897562727332115 -8.798461931291968e-05 0.005741335917264223 -0.00042645851499401033  738318.7013870156
1.4997466802597046 0.00028404631302691996 -0.024839458987116814 -0.006657271180301905 0.03469647839665413 0.0004665704909712076  738318.7013871999
1.4996209144592285 0.0004049498529639095 -0.03576652705669403 -0.0028026504442095757 0.037053585052490234 -0.004594768863171339  738318.7013873269
1.4994863271713257 0.0005505498265847564 -0.04868238419294357 -0.021668195724487305 -0.045647457242012024 -0.006506140343844891  738318.7013875578
1.4993220567703247 0.0007221545092761517 -0.06358804553747177 -0.006439623888581991 -0.010995620861649513 0.003838486038148403  738318.7013876733
1.5 0.0 0.0 0.0 0.0 0.0  738318.7013882503
1.4999876022338867 3.65244886779692e-05 -0.003966541960835457 -0.03939298912882805 -0.07656517624855042 -0.023400921374559402  738318.7013883543
1.4999456405639648 7.631884363945574e-05 -0.00892500951886177 -0.03044363297522068 -0.043994661420583725 -0.015416428446769714  738318.7013887698
1.4998699426651 0.00013597820361610502 -0.015870708972215652 -0.04561406373977661 -0.012412247247993946 -0.0072584510780870914  738318.7013889314
1.4997798204421997 0.00022120910580269992 -0.024806320667266846 -0.05801583081483841 -0.053703635931015015 -0.018348168581724167  738318.7013889891
1.4996623992919922 0.0003308248706161976 -0.0357283316552639 -0.04504856839776039 -0.050213005393743515 -0.022799942642450333  738318.7013890471
1.4995121955871582 0.00046510351239703596 -0.048634059727191925 -0.03518398106098175 -0.03514709323644638 -0.015010582283139229  738318.7013892913
1.49934720993042 0.0006207785336300731 -0.06352385878562927 -0.02819163352251053 -0.07093147188425064 -0.014443447813391685  738318.7013896148
1.4991607666015625 0.0007960928487591445 -0.08040006458759308 -0.034574586898088455 -0.0639931857585907 -0.017575334757566452  738318.7013896375
1.4989467859268188 0.000991110224276781 -0.09926628321409225 -0.04172547534108162 -0.033366184681653976 -0.020244896411895752  738318.7013898457
1.4987173080444336 0.0012073005782440305 -0.12012267857789993 -0.04807869717478752 -0.0450754389166832 -0.021061331033706665  738318.7013900881
1.4984655380249023 0.0014471079921349883 -0.14296512305736542 -0.05031709372997284 -0.03979162126779556 -0.016843732446432114  738318.7013902267
1.4999862909317017 1.3420467439573258e-05 -0.0012012629304081202 0.015884319320321083 0.015172170475125313 0.0008233689586631954  738318.7013906703
1.4999538660049438 5.037191658630036e-05 -0.00438077375292778 0.014914915896952152 -0.007234923541545868 -0.00398458493873477  738318.7013908438
1.4998966455459595 0.00010846650548046455 -0.009551419876515865 0.013145536184310913 -0.01974693313241005 -0.0024831495247781277  738318.7013910281
1.4998106956481934 0.00018560228636488318 -0.016712497919797897 0.017021402716636658 -0.009663758799433708 0.001792075578123331  738318.7013911897
1.4997074604034424 0.00028502210625447333 -0.025860417634248734 0.007494827266782522 -0.018693145364522934 -0.0015295888297259808  738318.7013914898
1.499587059020996 0.00040814437670633197 -0.03699236735701561 0.006148916203528643 -0.01621028408408165 -0.0063031758181750774  738318.7013917323
1.4994415044784546 0.0005561221623793244 -0.05011017248034477 0.010128922760486603 0.004355692304670811 -0.002036148216575384  738318.7013918939
1.4992743730545044 0.0007291062502190471 -0.06521555036306381 0.009155291132628918 0.00016505907115060836 0.0004500164941418916  738318.7013919516
1.4990843534469604 0.0009241030202247202 -0.08230794966220856 0.009211460128426552 -0.007071700878441334 -0.0020474654156714678  738318.7013920555
1.4990843534469604 0.0009241030202247202 -0.08230794966220856 0.009211460128426552 -0.007071700878441334 -0.0020474654156714678  738318.7013923903
1.4999923706054688 1.192811851069564e-05 -0.0009920221054926515 0.00028166311676613986 -0.010712823830544949 -0.0007766603375785053  738318.7013925172
1.4999659061431885 4.715531395049766e-05 -0.003968928009271622 0.002162222983315587 -0.018255384638905525 0.001919041620567441  738318.7013926511
1.499916434288025 0.00010321098670829087 -0.00893251784145832 0.007884801365435123 -0.006653212942183018 0.001725763431750238  738318.7013927434
1.4998468160629272 0.00017812568694353104 -0.01588290184736252 0.003759985091164708 -0.003969492390751839 -0.001829747692681849  738318.7013928472
1.4997574090957642 0.0002731778658926487 -0.024819564074277878 -0.005047230049967766 -0.002519971923902631 -0.002451258013024926  738318.7013928819
1.4996438026428223 0.00039175909478217363 -0.03574386239051819 -0.006161518860608339 0.008729107677936554 -0.0006451138760894537  738318.7013932052
1.4995074272155762 0.0005355273024179041 -0.04865646734833717 0.009070181287825108 0.006825629621744156 -0.0013243277790024877  738318.7013932628
1.4993486404418945 0.0007029772386886179 -0.06355513632297516 0.017161337658762932 -0.002742634853348136 -0.0032466519623994827  738318.7013933436
1.4991648197174072 0.0008886833675205708 -0.0804370641708374 0.017227869480848312 -0.007912757806479931 -0.0008954740478657186  738318.701393459
1.4989594221115112 0.0010924271773546934 -0.09930341690778732 0.0016960441134870052 -0.01338405441492796 0.0017577894032001495  738318.7013935861
1.4987353086471558 0.0013204372953623533 -0.12015854567289352 -0.01073353923857212 -0.010900122113525867 -0.0014910936588421464  738318.7013937184
1.4999899864196777 1.4913917766534723e-05 -0.0009946655482053757 0.011707698926329613 0.015865497291088104 -0.0010393146658316255  738318.7013937761
1.4999605417251587 5.756285827374086e-05 -0.003976100590080023 0.023502280935645103 0.02414770796895027 -0.0010781290475279093  738318.7013940298
1.499909520149231 0.00012171210255473852 -0.00894028227776289 0.030067168176174164 0.02095889300107956 0.0002483893185853958  738318.701394157
1.4998337030410767 0.00020331326231826097 -0.015888458117842674 0.021252159029245377 0.015871303156018257 0.0006974430289119482  738318.7013943299
1.4997345209121704 0.00030551161034964025 -0.02482706680893898 0.008808234706521034 0.009232266806066036 0.0007048343541100621  738318.7013944688
1.4996153116226196 0.000433740351581946 -0.03575899451971054 0.0081260297447443 0.00381314754486084 -0.0011436515487730503  738318.701394688
1.4994755983352661 0.0005900159012526274 -0.04867914691567421 0.016391322016716003 0.010056710802018642 0.00035707702045328915  738318.7013949647
1.4993153810501099 0.0007711385260336101 -0.06358153373003006 0.02378772385418415 0.016267472878098488 -0.0004337520804256201  738318.7013949647
1.4999891519546509 8.625597729405854e-06 -0.0009950930252671242 -0.005345514975488186 0.0010529623832553625 -0.0007764612673781812  738318.7013954149
1.4999557733535767 3.5299817682243884e-05 -0.003982387948781252 -0.013103649020195007 0.0031990890856832266 -3.865126200253144e-05  738318.7013955534
1.4998996257781982 8.286910451715812e-05 -0.008963409811258316 -0.015933610498905182 0.0022086715325713158 0.0003775546792894602  738318.7013956344
1.4998204708099365 0.00015452195657417178 -0.0159328393638134 -0.016314400359988213 -0.0016229620669037104 -0.0010344719048589468  738318.7013958077
1.4997180700302124 0.00025013339472934604 -0.024883130565285683 -0.009980013594031334 -0.003952008672058582 -0.0016567602287977934  738318.7013960036
1.499592900276184 0.0003675936022773385 -0.035813577473163605 -0.006985037587583065 -0.004108768422156572 -0.001802827580831945  738318.7013961229
1.4994457960128784 0.0005054408684372902 -0.04873079061508179 -0.008122838102281094 -0.004688062705099583 -0.001809607376344502  738318.7013961807
1.4992755651474 0.00066354003502056 -0.06363976001739502 -0.011185448616743088 -0.0011302472557872534 -0.0017634191317483783  738318.7013964351
1.4990813732147217 0.000843315792735666 -0.08053842186927795 -0.014495874755084515 0.0020768246613442898 -0.003280308097600937  738318.7013965389
1.4988640546798706 0.001046326127834618 -0.09942136704921722 -0.016147885471582413 0.0033652379643172026 -0.004956674296408892  738318.7013967348
1.5 0.0 0.0 0.0 0.0 0.0  738318.7013969083
1.4999579191207886 4.598719169734977e-05 -0.0039780400693416595 0.0049927025102078915 -0.0009955791756510735 0.0014657180290669203  738318.7013973249
1.4999055862426758 0.00010321677837055176 -0.008950971066951752 0.006878789514303207 -0.002925419481471181 -0.0015074362745508552  738318.7013975212
1.4998323917388916 0.00018287991406396031 -0.01591220125555992 0.005607627332210541 -0.0026079523377120495 -0.0019771333318203688  738318.7013979487
1.4997379779815674 0.0002858329680748284 -0.024858297780156136 0.0012447411427274346 -0.0022973024751991034 -0.001536747207865119  738318.7013980985
1.4996224641799927 0.0004124161205254495 -0.03578842058777809 -0.00030294377938844264 -0.0021449571941047907 0.0010717674158513546  738318.7013982253
1.4994845390319824 0.0005632282118313015 -0.048704687505960464 0.0007986769778653979 0.0009530870011076331 0.000276270235190168  738318.7013983061
1.4993232488632202 0.000737827445846051 -0.06360863894224167 0.003974298480898142 0.0030877881217747927 0.0006566695519722998  738318.7013983984
1.499140977859497 0.0009341199765913188 -0.08049972355365753 0.007066378835588694 -0.003276056842878461 0.0009324700222350657  738318.7013984385
1.498939871788025 0.001151926931925118 -0.09937678277492523 0.005729997530579567 -0.009168681688606739 0.005072412546724081  738318.7013985774
1.498693585395813 0.0014219540171325207 -0.12243575602769852 -0.015261396765708923 0.010087691247463226 0.0015497116837650537  738318.7013989699
1.4984452724456787 0.001700658816844225 -0.14548355340957642 -0.025347715243697166 0.02657063491642475 -0.01756354235112667  738318.7013991661
1.4999805688858032 1.0650980584614445e-05 -0.000992001499980688 0.04189768806099892 0.0027990303933620453 -0.005877471994608641  738318.7013996015
1.4999221563339233 4.337752761784941e-05 -0.0039695510640740395 0.07211511582136154 -0.006936315912753344 -0.002040187595412135  738318.7013998093
1.49982488155365 8.629045623820275e-05 -0.008935211226344109 0.08921418339014053 -0.03507746011018753 -0.010559914633631706  738318.7013999132
1.4996907711029053 0.00013577209028881043 -0.01589278131723404 0.07444970309734344 -0.0543176531791687 -0.04882802069187164  738318.7014000632
1.4995427131652832 0.00022166440612636507 -0.024845492094755173 -0.03166724741458893 -0.11660724878311157 -0.08459608256816864  738318.701400271
1.4993923902511597 0.0003516842843964696 -0.035786036401987076 0.0168604739010334 -0.1414402574300766 -0.0903247818350792  738318.7014003057
1.499221682548523 0.0005189180374145508 -0.048706330358982086 0.13424016535282135 -0.06016036868095398 -0.0770680159330368  738318.7014004214
1.4990301132202148 0.0007186989532783628 -0.06360851228237152 0.10879294574260712 -0.011339969001710415 -0.10254868865013123  738318.7014006521
1.4990301132202148 0.0007186989532783628 -0.06360851228237152 0.10879294574260712 -0.011339969001710415 -0.10254868865013123  738318.7014008714
1.4988150596618652 0.0009293046314269304 -0.08049768954515457 0.07698743790388107 -0.018680976703763008 -0.15654906630516052  738318.7014013331
1.5 0.0 0.0 0.0 0.0 0.0  738318.7014014603
1.4999959468841553 9.206837603414897e-06 -0.0009936036076396704 0.04572446271777153 -0.03933658078312874 0.012846474535763264  738318.7014020259
1.4999831914901733 2.6229987270198762e-05 -0.003970157355070114 0.1536291241645813 -0.11781889200210571 0.020771265029907227  738318.7014020955
1.4999535083770752 4.193353379378095e-05 -0.008928900584578514 0.13248780369758606 -0.12615440785884857 0.02252243645489216  738318.7014022337
1.49991774559021 5.0117163482354954e-05 -0.015877943485975266 0.06863359361886978 -0.11284348368644714 0.01364906970411539  738318.7014025799
1.4998831748962402 6.6453154431656e-05 -0.02482285350561142 0.021636417135596275 -0.06951894611120224 0.018936550244688988  738318.7014026146
1.4998284578323364 0.00012144695210736245 -0.0357576385140419 0.0006955713615752757 0.0336613804101944 0.03413141146302223  738318.7014028224
1.4997457265853882 0.00021783255215268582 -0.0486702062189579 0.05190807208418846 0.07477318495512009 0.02422826923429966  738318.7014030648
1.5 0.0 0.0 0.0 0.0 0.0  738318.7014032617
1.4999809265136719 -1.4107312154010287e-06 -0.0009996478911489248 0.016442719846963882 -0.054181214421987534 0.014363464899361134  738318.7014036658
1.4999324083328247 1.7855328451332753e-06 -0.003999428823590279 0.01401977427303791 -0.11119630187749863 0.024795379489660263  738318.7014037927
1.4998756647109985 2.451653745083604e-05 -0.008995553478598595 -0.020624816417694092 -0.15309424698352814 0.018729226663708687  738318.7014039886
1.4998183250427246 7.182388071669266e-05 -0.01597621664404869 -0.010160422883927822 -0.12451543658971786 0.00972216296941042  738318.701404081
1.4997557401657104 0.000145315018016845 -0.024933818727731705 0.00299352640286088 -0.057167407125234604 0.0196604635566473  738318.7014041387
1.4996793270111084 0.00024114780535455793 -0.03587329760193825 -0.0003380349080543965 -0.01071434561163187 0.03005453571677208  738318.7014041853
1.4995704889297485 0.0003475697885733098 -0.04880504310131073 0.000876228732522577 0.019060149788856506 0.030687708407640457  738318.7014044173
1.499419927597046 0.00046412466326728463 -0.06373440474271774 -0.008627538569271564 0.012564532458782196 0.03526017442345619  738318.7014046708
1.499235987663269 0.0006019797874614596 -0.08065512031316757 -0.04242752119898796 -0.04260546341538429 0.05065594241023064  738318.7014047636
1.4990226030349731 0.0007728263735771179 -0.09955692291259766 -0.05092978477478027 -0.07388947904109955 0.05298639088869095  738318.7014048902
1.4987865686416626 0.000979183823801577 -0.12043647468090057 -0.012450327165424824 -0.06583680957555771 0.032862529158592224  738318.7014049594
1.4985404014587402 0.0012126971269026399 -0.14329831302165985 0.021439235657453537 -0.06350148469209671 0.0234982930123806  738318.7014051676
1.4982801675796509 0.0014580973656848073 -0.16815021634101868 0.02189379557967186 -0.05479084327816963 0.04037541523575783  738318.701405375
1.5 0.0 0.0 0.0 0.0 0.0  738318.7014055025
1.499989628791809 1.3997889254824258e-05 -0.0009924061596393585 -0.035056643187999725 0.00814888346940279 -0.02007327228784561  738318.7014057799
1.4999560117721558 5.8394347433932126e-05 -0.003968114033341408 -0.04129519686102867 0.004775132983922958 -0.030779318884015083  738318.7014058834
1.4998924732208252 0.0001376477157464251 -0.008925867266952991 -0.011522089131176472 0.0023399293422698975 -0.015122214332222939  738318.7014060797
1.4997997283935547 0.00024609765387140214 -0.015867754817008972 0.015852374956011772 -0.012904800474643707 -0.006522046867758036  738318.7014062648
1.4996823072433472 0.00037130824057385325 -0.024797994643449783 0.02064368687570095 -0.03519851341843605 -0.019152618944644928  738318.7014065529
1.5 0.0 0.0 0.0 0.0 0.0  738318.7014067608
1.4999957084655762 1.3016626326134428e-05 -0.0009927400387823582 -0.012502762489020824 0.007304022088646889 0.018167391419410706  738318.7014070954
1.499976396560669 5.633327964460477e-05 -0.003963243681937456 -0.01034929882735014 0.027926376089453697 0.03339068219065666  738318.7014071535
1.4999096393585205 0.00017180934082716703 -0.008837496861815453 0.40077224373817444 0.28450942039489746 0.2062116265296936  738318.7014072575
1.499816656112671 0.0004031996941193938 -0.015602046623826027 0.7081792950630188 0.40853792428970337 0.37252897024154663  738318.7014074306
1.4997397661209106 0.0006872782832942903 -0.0243774875998497 0.9924193024635315 0.3597906529903412 0.353293776512146  738318.7014074995
1.4996521472930908 0.0009475966216996312 -0.035257767885923386 1.1867127418518066 0.35209333896636963 0.26732316613197327  738318.7014075918
1.499552845954895 0.0011626183986663818 -0.04822869971394539 1.1843069791793823 0.5598893165588379 0.18937571346759796  738318.7014076957
1.4994986057281494 0.0013274644734337926 -0.06320305168628693 1.023471713066101 0.8684083819389343 0.12956276535987854  738318.7014078323
1.4994844198226929 0.0014343902003020048 -0.08012925088405609 0.6941393613815308 1.1217585802078247 0.09578954428434372  738318.701408017
1.5 0.0 0.0 0.0 0.0 0.0  738318.7014083173
1.4997538328170776 1.4957969142415095e-05 -0.004162503406405449 -0.7186784744262695 -0.13312138617038727 -0.1825556606054306  738318.7014084328
1.4994466304779053 -5.510039954970125e-06 -0.00904463604092598 -1.0168226957321167 -0.6814628839492798 -0.17770102620124817  738318.7014086057
1.4989815950393677 1.380474441248225e-05 -0.01587933488190174 -1.2771375179290771 -1.1528825759887695 -0.1418161392211914  738318.7014088539
1.4984127283096313 5.507442983798683e-05 -0.024847764521837234 -1.4185818433761597 -1.3180848360061646 -0.07163452357053757  738318.7014091308
1.4978504180908203 4.518730565905571e-05 -0.035934966057538986 -1.6861014366149902 -1.5308263301849365 0.12574118375778198  738318.7014092117
1.4972543716430664 -4.076118057128042e-05 -0.0489770732820034 -2.1459338665008545 -1.751360297203064 0.3855223059654236  738318.7014092463
1.4965521097183228 -0.00014669913798570633 -0.06390649080276489 -2.5003697872161865 -2.060394525527954 0.5726950764656067  738318.7014093621
1.4957748651504517 -0.0001900115021271631 -0.08079743385314941 -2.6760942935943604 -2.466783285140991 0.6909928917884827  738318.7014094656
1.4949581623077393 -0.00013966632832307369 -0.09970766305923462 -2.736309051513672 -2.863955497741699 0.8081011176109314  738318.7014095696
1.5 0.0 0.0 0.0 0.0 0.0  738318.7014100123
1.5000182390213013 7.238809484988451e-05 -0.000990497530438006 0.187433123588562 -0.22493690252304077 0.11349475383758545  738318.7014101393
1.5000951290130615 0.00030550212250091136 -0.003970746416598558 0.4895155131816864 -0.3443908393383026 0.18808363378047943  738318.7014102779
1.500264048576355 0.0006853723898530006 -0.008932158350944519 0.8826099038124084 -0.29979103803634644 0.140717551112175  738318.7014104857
1.500457763671875 0.00114231719635427 -0.015841787680983543 1.225170612335205 -0.225901797413826 -0.0020064639393240213  738318.701410705
1.5006004571914673 0.001629210077226162 -0.02471647597849369 1.428679347038269 -0.3352462351322174 -0.2042616456747055  738318.7014108204
1.5007182359695435 0.0021572753321379423 -0.035606250166893005 1.5928728580474854 -0.6089861989021301 -0.4018402397632599  738318.7014110051
1.500844955444336 0.002757298294454813 -0.048517193645238876 1.8005040884017944 -0.6999050378799438 -0.5638561248779297  738318.7014111554
1.5010045766830444 0.003429585136473179 -0.06342726945877075 2.0285675525665283 -0.6626080870628357 -0.6879512667655945  738318.7014113892
1.5011980533599854 0.00414624996483326 -0.08034514635801315 2.218395709991455 -0.6527136564254761 -0.7509636282920837  738318.7014115046
1.5013941526412964 0.004898183047771454 -0.0992962047457695 2.3621349334716797 -0.6246413588523865 -0.8068662881851196  738318.7014118856
1.5000137090682983 8.68182996782707e-06 -0.000990584958344698 0.1184849813580513 0.023051880300045013 -0.05919462442398071  738318.701412013
1.5000505447387695 4.465890015126206e-05 -0.003954065032303333 0.2380700409412384 0.06514237821102142 -0.10292163491249084  738318.7014122087
1.5000953674316406 0.00011717308370862156 -0.008887015283107758 0.39641591906547546 0.10929049551486969 -0.1323399394750595  738318.701412336
1.5001347064971924 0.0002334587916266173 -0.015810655429959297 0.5969848036766052 0.05653519928455353 -0.18153920769691467  738318.7014124742
1.5001671314239502 0.00039491619099862874 -0.024744968861341476 0.8223128318786621 -0.07758548855781555 -0.22839908301830292  738318.7014127285
1.5002036094665527 0.0005965803866274655 -0.0356740802526474 1.0657459497451782 -0.22079354524612427 -0.27535203099250793  738318.7014128898
1.5002715587615967 0.0008083054563030601 -0.048549965023994446 1.3134119510650635 -0.36418402194976807 -0.31779932975769043  738318.701412936
1.5004231929779053 0.0009514568373560905 -0.06333080679178238 1.4413087368011475 -0.44260287284851074 -0.22763869166374207  738318.7014131206
1.5006978511810303 0.0009514192352071404 -0.080022893846035 1.2165037393569946 -0.27500778436660767 -0.028844594955444336  738318.7014132361
1.5010795593261719 0.0007863121572881937 -0.09868510067462921 0.6465760469436646 0.14396530389785767 0.12185749411582947  738318.7014133667
1.501512885093689 0.0005151611985638738 -0.11938129365444183 -0.03496555611491203 0.5324373841285706 0.1442229151725769  738318.7014134706
1.5 0.0 0.0 0.0 0.0 0.0  738318.7014137822
1.4999792575836182 0.00012979848543182015 -0.0010109117720276117 -0.03473438322544098 0.09635300934314728 0.1108371913433075  738318.7014140593
1.4999417066574097 0.00048186007188633084 -0.004041698761284351 0.12607179582118988 0.2250480204820633 0.14692498743534088  738318.7014144752
1.4999125003814697 0.0009657215559855103 -0.009077467024326324 0.33417919278144836 0.3424334228038788 0.058741044253110886  738318.7014147545
1.4998931884765625 0.0014942728448659182 -0.016096757724881172 0.502688467502594 0.4424695670604706 -0.08993350714445114  738318.7014147775
1.4998950958251953 0.0020383461378514767 -0.025091946125030518 0.6747692823410034 0.5638626217842102 -0.19313544034957886  738318.7014149738
1.499937653541565 0.002602977678179741 -0.03606877103447914 0.8426530957221985 0.7527725100517273 -0.23047183454036713  738318.70141517
1.5000340938568115 0.003173434641212225 -0.0490214079618454 0.9836039543151855 0.991925060749054 -0.20052270591259003  738318.7014152611
1.5 0.0 0.0 0.0 0.0 0.0  738318.7014156422
1.4999464750289917 -4.523836832959205e-05 -0.0010229412000626326 -0.21017786860466003 0.10886666178703308 0.11948437243700027  738318.7014160708
1.4998122453689575 -0.00016793633403722197 -0.0040912926197052 -0.5048514604568481 0.08086428791284561 0.17768250405788422  738318.7014161978
1.4996368885040283 -0.0003098806191701442 -0.00917707197368145 -0.7904329895973206 0.04962240159511566 0.11407268047332764  738318.7014163824
1.4994707107543945 -0.0003934273845516145 -0.01621265336871147 -0.8925193548202515 0.12572850286960602 0.06727238744497299  738318.7014164864
1.4993515014648438 -0.0003641973016783595 -0.025166969746351242 -0.819226861000061 0.3589383661746979 0.0637129545211792  738318.7014166251
1.499269723892212 -0.0002466132282279432 -0.036090172827243805 -0.6017160415649414 0.7220045328140259 0.022296207025647163  738318.7014167518
1.4992003440856934 -0.00010479873162694275 -0.049023550003767014 -0.4486877918243408 1.0782102346420288 -0.029658837243914604  738318.7014168791
1.499144434928894 2.376567863393575e-05 -0.06393242627382278 -0.4379289746284485 1.3084019422531128 -0.07207424938678741  738318.7014170671
1.499075174331665 0.00013652285269927233 -0.08079501986503601 -0.40082186460494995 1.5138447284698486 -0.11145265400409698  738318.7014172749
1.4989171028137207 0.0003025130135938525 -0.10162698477506638 -0.19608116149902344 1.7211419343948364 -0.19016222655773163  738318.7014175062
1.5 0.0 0.0 0.0 0.0 0.0  738318.7014175523
1.4999359846115112 0.00011986472236458212 -0.004054541699588299 0.9437177777290344 -0.08578948676586151 -0.03533962741494179  738318.7014178752
1.4998539686203003 0.0003190838033333421 -0.009110120125114918 1.4243812561035156 -0.12280276417732239 -0.07763122767210007  738318.7014181414
1.4997270107269287 0.0005380103830248117 -0.01614701747894287 1.8453577756881714 -0.18258024752140045 -0.18539825081825256  738318.7014182104
1.4994986057281494 0.000742217293009162 -0.025113116949796677 2.019134998321533 -0.4493946135044098 -0.40697595477104187  738318.7014183954
1.4991114139556885 0.0009239347418770194 -0.036022741347551346 1.9136927127838135 -0.9040266871452332 -0.9242417216300964  738318.7014185566
1.49861741065979 0.0010965265100821853 -0.04895579069852829 1.6642028093338013 -1.2812145948410034 -1.8465850353240967  738318.701418776
1.4981212615966797 0.0012696702033281326 -0.06393727660179138 1.106034278869629 -1.2774996757507324 -3.045193910598755  738318.7014188222
1.4976524114608765 0.001403378788381815 -0.08093582838773727 0.3881663382053375 -0.8443775177001953 -4.349600315093994  738318.70141903
1.4971446990966797 0.0014151980867609382 -0.09994454681873322 -0.18997687101364136 -0.5273786187171936 -5.56373929977417  738318.7014191919
1.4965823888778687 0.0013500088825821877 -0.12096340954303741 -0.738197386264801 -0.7877746224403381 -6.464941501617432  738318.7014195147
1.500011920928955 0.0004506854456849396 -0.008932184427976608 0.2980464994907379 0.7690912485122681 -0.20914635062217712  738318.7014196995
1.4997518062591553 0.0006998121971264482 -0.015985410660505295 0.19820715487003326 1.1489927768707275 -0.9036506414413452  738318.701419861
1.4993014335632324 0.0009654646273702383 -0.02523379772901535 -0.05909918248653412 1.4276032447814941 -2.0134437084198  738318.7014199534
