% x y z r p yw  738318.6964439547
-0.6456761956214905 0.3839119076728821 0.7434574365615845 -0.3402882218360901 0.8779640197753906 1.731201171875  738318.696536792
-0.6464102268218994 0.3831001818180084 0.7438976168632507 -0.41362446546554565 0.9337560534477234 1.743108868598938  738318.6965373186
-0.6471598148345947 0.38229435682296753 0.7443296313285828 -0.4895020127296448 0.9330258965492249 1.736122965812683  738318.696537602
-0.6479252576828003 0.3814955949783325 0.744739294052124 -0.5694640874862671 0.9537416100502014 1.7317026853561401  738318.6965378328
-0.64870685338974 0.3807052671909332 0.7451356053352356 -0.61338871717453 0.9249668121337891 1.7238054275512695  738318.6965379599
-0.6495048999786377 0.37992462515830994 0.7455364465713501 -0.6468921899795532 0.8859270215034485 1.7192509174346924  738318.6965381908
-0.6503190398216248 0.3791545033454895 0.745954155921936 -0.7006877660751343 0.8542711734771729 1.7158912420272827  738318.6965385369
-0.6511486768722534 0.3783957064151764 0.7463911175727844 -0.7399901151657104 0.7993013858795166 1.7064510583877563  738318.6965386639
-0.6519929766654968 0.3776489496231079 0.7468385696411133 -0.7825782895088196 0.7637509703636169 1.7006137371063232  738318.6965387679
-0.6528511643409729 0.37691494822502136 0.7472952604293823 -0.8772653341293335 0.7197967767715454 1.679650068283081  738318.6965388953
-0.6445899605751038 0.38506054878234863 0.7450960278511047 -0.9353255033493042 0.6599912643432617 1.6370530128479004  738318.6965389987
-0.645315945148468 0.38450297713279724 0.7454919815063477 -0.9995152354240417 0.6119029521942139 1.616879940032959  738318.6965391026
-0.6460531949996948 0.3839615285396576 0.7458793520927429 -1.060982346534729 0.5655518174171448 1.5891987085342407  738318.696539345
-0.6468009352684021 0.38343727588653564 0.7462595701217651 -1.1001325845718384 0.525764524936676 1.5723389387130737  738318.6965393799
-0.6417329907417297 0.38923752307891846 0.7456187605857849 -1.1733524799346924 0.4362363815307617 1.5631051063537598  738318.6965397951
-0.6423814296722412 0.3888726234436035 0.7459246516227722 -1.218244194984436 0.41417673230171204 1.5490846633911133  738318.6965399222
-0.6430374979972839 0.38852739334106445 0.7462028861045837 -1.2111361026763916 0.39850181341171265 1.523337483406067  738318.6965402799
-0.6437009572982788 0.3882025182247162 0.7464678883552551 -1.1766740083694458 0.44187477231025696 1.5086803436279297  738318.696540451
-0.6443721055984497 0.3878977596759796 0.7467265129089355 -1.1548842191696167 0.5044592618942261 1.4906175136566162  738318.6965405665
-0.6450517773628235 0.38761255145072937 0.7469759583473206 -1.081390380859375 0.5791264772415161 1.4651672840118408  738318.6965406815
-0.6457411646842957 0.38734614849090576 0.7472196817398071 -0.9610203504562378 0.7007840871810913 1.4461381435394287  738318.6965407277
-0.6464419960975647 0.3870970606803894 0.7474698424339294 -0.8519419431686401 0.7737791538238525 1.4431424140930176  738318.6965408432
-0.6471559405326843 0.38686326146125793 0.7477261424064636 -0.7020570039749146 0.8413304090499878 1.4226830005645752  738318.6965410399
-0.6426802277565002 0.3929242193698883 0.7470502257347107 -0.6542490720748901 0.8895519971847534 1.4275295734405518  738318.6965411897
-0.6433223485946655 0.39285367727279663 0.7473093271255493 -0.561485230922699 0.9090021848678589 1.4243839979171753  738318.6965413049
-0.6439805030822754 0.39279335737228394 0.7475932240486145 -0.45491617918014526 0.9298796057701111 1.4139173030853271  738318.6965416628
-0.6446548104286194 0.39274144172668457 0.7478893995285034 -0.3512001037597656 0.9569262862205505 1.418328881263733  738318.6965418016
-0.6453453302383423 0.39269599318504333 0.7481787800788879 -0.25214093923568726 0.9773053526878357 1.4175504446029663  738318.6965418822
-0.646052360534668 0.39265525341033936 0.7484588027000427 -0.17908719182014465 1.0023540258407593 1.4195327758789062  738318.6965420671
-0.6467766165733337 0.3926178216934204 0.7487494945526123 -0.11536978930234909 1.0197014808654785 1.4178688526153564  738318.6965421706
-0.6475187540054321 0.392582505941391 0.7490678429603577 -0.0382629856467247 1.0149208307266235 1.4035953283309937  738318.6965422172
-0.6482788920402527 0.3925480842590332 0.7494165897369385 0.01682080514729023 1.0311801433563232 1.4031479358673096  738318.6965423671
-0.6490569114685059 0.39251336455345154 0.7497854232788086 0.09069446474313736 1.0287810564041138 1.3962986469268799  738318.6965425747
-0.6498528718948364 0.39247727394104004 0.7501730918884277 0.13680274784564972 1.050894856452942 1.3847088813781738  738318.69654269
-0.6461394429206848 0.398510217666626 0.7494572401046753 0.12276269495487213 1.1150528192520142 1.389593243598938  738318.696542817
-0.6469123363494873 0.3985837996006012 0.7498558759689331 0.16594044864177704 1.0719786882400513 1.3845316171646118  738318.6965429325
-0.6477040648460388 0.39865440130233765 0.7502628564834595 0.24858447909355164 1.0571529865264893 1.3837082386016846  738318.6965430941
-0.6485961079597473 0.3987273871898651 0.7507208585739136 0.338727742433548 1.0043681859970093 1.3842475414276123  738318.696543233
-0.6494256854057312 0.3987879455089569 0.7511512637138367 0.4420029819011688 0.9795831441879272 1.3774347305297852  738318.6965434523
-0.6502721905708313 0.39884135127067566 0.7515870928764343 0.5325608849525452 0.9401646852493286 1.3818036317825317  738318.696543487
-0.6511347889900208 0.398886114358902 0.7520134449005127 0.6164460182189941 0.953697681427002 1.3750611543655396  738318.6965436366
-0.6520133018493652 0.3989207148551941 0.7524359822273254 0.7072381973266602 0.972200870513916 1.3504163026809692  738318.6965437521
-0.652908444404602 0.3989432454109192 0.7528848648071289 0.7599295973777771 0.9958024621009827 1.3525519371032715  738318.6965438791
-0.6538208723068237 0.3989522457122803 0.7533750534057617 0.7950647473335266 0.9681153297424316 1.3375227451324463  738318.6965440175
-0.6500840187072754 0.4054196774959564 0.7526749968528748 0.8725963830947876 1.022990107536316 1.3353432416915894  738318.6965441564
-0.6509689092636108 0.40551096200942993 0.7532263994216919 0.9258695244789124 0.9737082123756409 1.3288214206695557  738318.6965443643
-0.651871383190155 0.4055855870246887 0.753828227519989 0.9771041870117188 0.9173917770385742 1.3225497007369995  738318.6965445718
-0.6527898907661438 0.4056432843208313 0.7544453740119934 1.0118019580841064 0.8315643668174744 1.3169997930526733  738318.6965447795
-0.6537228226661682 0.4056837856769562 0.7550517916679382 1.0156314373016357 0.7096967697143555 1.3087354898452759  738318.6965448259
-0.6546685695648193 0.40570661425590515 0.7556595802307129 1.0445235967636108 0.6407157182693481 1.3158214092254639  738318.6965450218
-0.6556256413459778 0.40571120381355286 0.7562856078147888 1.0612211227416992 0.5956332087516785 1.3156243562698364  738318.6965454837
-0.6565931439399719 0.4056970477104187 0.7569371461868286 1.0647556781768799 0.5074830651283264 1.3056763410568237  738318.69654568
-0.6575697660446167 0.40566420555114746 0.7576025724411011 1.0546168088912964 0.500917375087738 1.3049733638763428  738318.696545876
-0.6585546135902405 0.4056130051612854 0.7582689523696899 1.0498237609863281 0.48048242926597595 1.2967435121536255  738318.6965460033
-0.6595475077629089 0.4055434763431549 0.7589422464370728 1.0464692115783691 0.4781162440776825 1.2780026197433472  738318.6965462338
-0.6559443473815918 0.41182586550712585 0.7580225467681885 1.0728946924209595 0.5564082860946655 1.2710895538330078  738318.696546315
-0.6569061875343323 0.4118258059024811 0.7586781978607178 1.0868139266967773 0.5615759491920471 1.2612260580062866  738318.6965464188
-0.6578772664070129 0.41180697083473206 0.7593379020690918 1.0777652263641357 0.5490806698799133 1.241310954093933  738318.6965465224
-0.6588574051856995 0.41176944971084595 0.7599961161613464 1.0885063409805298 0.5074724555015564 1.226271629333496  738318.6965468229
-0.6598462462425232 0.4117131233215332 0.760658323764801 1.0972715616226196 0.42551493644714355 1.2125561237335205  738318.6965469957
-0.6608426570892334 0.41163790225982666 0.7613212466239929 1.1288400888442993 0.35805824398994446 1.2034943103790283  738318.6965471345
-0.661845326423645 0.4115436375141144 0.7619760632514954 1.1585062742233276 0.2344374805688858 1.1912596225738525  738318.69654725
-0.6628527045249939 0.41142982244491577 0.7626242637634277 1.1585081815719604 0.13432353734970093 1.1802912950515747  738318.696547377
-0.6638627648353577 0.4112963378429413 0.7632613778114319 1.091216802597046 0.08022823929786682 1.1794072389602661  738318.6965475385
-0.6607369184494019 0.41715049743652344 0.7628292441368103 1.07093346118927 0.10260672122240067 1.1437355279922485  738318.6965477576
-0.6617101430892944 0.4170700013637543 0.7634687423706055 1.0355385541915894 0.03907173126935959 1.1229958534240723  738318.6965479077
-0.6626842021942139 0.41697072982788086 0.7641485929489136 0.9915161728858948 0.014685039408504963 1.1112617254257202  738318.6965481504
-0.6636583805084229 0.4168536067008972 0.7648574113845825 0.9216465950012207 -0.04229212552309036 1.08161461353302  738318.696548277
-0.6646319627761841 0.41671979427337646 0.7655883431434631 0.8905377984046936 -0.09983312338590622 1.044036865234375  738318.6965484848
-0.6656040549278259 0.41657018661499023 0.7663394808769226 0.8406646847724915 -0.09575192630290985 1.0235674381256104  738318.6965487853
-0.6665741205215454 0.41640549898147583 0.7671104669570923 0.8132616281509399 -0.16239820420742035 0.9852321147918701  738318.6965490042
-0.6675416827201843 0.41622650623321533 0.7678952813148499 0.8118901252746582 -0.18635530769824982 0.9490440487861633  738318.6965490853
-0.6685059666633606 0.41603338718414307 0.7686989307403564 0.8172997236251831 -0.21797186136245728 0.92144775390625  738318.6965493852
-0.669466495513916 0.41582611203193665 0.7695202231407166 0.8048985600471497 -0.3091459572315216 0.8815747499465942  738318.6965495353
-0.6654618978500366 0.42188140749931335 0.7694020867347717 0.812148928642273 -0.34929385781288147 0.8523536920547485  738318.6965497661
-0.6663249731063843 0.42174503207206726 0.7702316045761108 0.8167112469673157 -0.3712995946407318 0.8238604664802551  738318.6965498815
-0.6671815514564514 0.42159444093704224 0.7710868716239929 0.7821241617202759 -0.34800049662590027 0.8052739500999451  738318.6965499854
-0.6680316925048828 0.42143014073371887 0.7719506621360779 0.7666055560112 -0.32992738485336304 0.773211658000946  738318.6965500319
-0.6688759326934814 0.4212528169155121 0.7728005647659302 0.7524173259735107 -0.2818872630596161 0.743694543838501  738318.6965502743
-0.6697148680686951 0.4210628569126129 0.773628294467926 0.7059760689735413 -0.18298782408237457 0.718047022819519  738318.6965503782
-0.670549750328064 0.4208606779575348 0.7744381427764893 0.7092724442481995 -0.10558336973190308 0.7000817060470581  738318.6965504932
-0.6713820099830627 0.4206464886665344 0.775241494178772 0.7327685356140137 -0.021915530785918236 0.6676996350288391  738318.6965505971
-0.6722130179405212 0.420419842004776 0.7760547995567322 0.7404585480690002 0.049767911434173584 0.6472008228302002  738318.6965507009
-0.6684942245483398 0.42634662985801697 0.7758393883705139 0.7542937397956848 0.10255435109138489 0.6522774696350098  738318.696550839
-0.6692381501197815 0.4261985421180725 0.7766587734222412 0.763740062713623 0.12568622827529907 0.6399540901184082  738318.6965509689
-0.6699839234352112 0.426037460565567 0.7774755358695984 0.7586120367050171 0.13121163845062256 0.628254771232605  738318.6965513404
-0.6707316637039185 0.425863653421402 0.7782667875289917 0.7532749772071838 0.12649290263652802 0.6237483024597168  738318.6965513921
-0.6714814305305481 0.4256773293018341 0.7790252566337585 0.7512595057487488 0.13061624765396118 0.6238929629325867  738318.6965514614
-0.6722331643104553 0.4254785478115082 0.7797481417655945 0.7341857552528381 0.12205428630113602 0.6191660761833191  738318.6965516579
-0.6729868650436401 0.4252674877643585 0.7804362177848816 0.6950746178627014 0.11556544899940491 0.6130097508430481  738318.6965518423
-0.673742413520813 0.425044447183609 0.7810998558998108 0.6606064438819885 0.13111424446105957 0.6027715802192688  738318.696552202
-0.6744999289512634 0.4248099625110626 0.7817465662956238 0.6397079825401306 0.14023257791996002 0.5953900218009949  738318.6965524213
-0.6752595901489258 0.42456451058387756 0.782377302646637 0.6262547969818115 0.19329461455345154 0.5826902389526367  738318.6965526522
-0.6717438697814941 0.4305279850959778 0.7818639874458313 0.5787686109542847 0.24934877455234528 0.5628717541694641  738318.6965528488
-0.6738352179527283 0.43000778555870056 0.783634603023529 0.37025538086891174 0.3865906596183777 0.5275285243988037  738318.6965532494
-0.6752604842185974 0.429624080657959 0.7848461866378784 0.28716179728507996 0.39850127696990967 0.500877857208252  738318.6965533074
-0.6759835481643677 0.42942389845848083 0.7854767441749573 0.294660359621048 0.3581879138946533 0.4828263223171234  738318.69655355
-0.677449107170105 0.429008424282074 0.786811888217926 0.1986904889345169 0.34714940190315247 0.4521937668323517  738318.6965537113
-0.6781910061836243 0.4287944734096527 0.787490963935852 0.18873782455921173 0.33656686544418335 0.43710052967071533  738318.6965538381
-0.678938627243042 0.4285772144794464 0.7881556153297424 0.17986756563186646 0.3205926716327667 0.41567498445510864  738318.6965539304
-0.6787987351417542 0.43549251556396484 0.7902337908744812 -0.09828992187976837 0.379759281873703 0.2914174795150757  738318.6965542777
-0.6795475482940674 0.43543437123298645 0.7908535003662109 -0.09333299845457077 0.36525341868400574 0.27333685755729675  738318.6965545547
-0.680302619934082 0.4353777766227722 0.791451632976532 -0.08983664959669113 0.341401606798172 0.25349390506744385  738318.696554751
-0.6810635328292847 0.43532270193099976 0.7920168042182922 -0.08402051776647568 0.31450438499450684 0.22530591487884521  738318.69655504
-0.681830108165741 0.4352690875530243 0.7925825715065002 -0.05409330502152443 0.353640615940094 0.20451749861240387  738318.6965551435
-0.6826026439666748 0.43521666526794434 0.7931844592094421 -0.04088623821735382 0.37668758630752563 0.18754366040229797  738318.6965553167
-0.6833816170692444 0.43516504764556885 0.7938132286071777 -0.016494987532496452 0.3858408033847809 0.1723104566335678  738318.6965553415
-0.6793917417526245 0.4418497383594513 0.793876588344574 -0.022055860608816147 0.41351836919784546 0.18825502693653107  738318.6965555021
-0.6800981760025024 0.4419249892234802 0.7944861650466919 0.03161745145916939 0.48671457171440125 0.17670786380767822  738318.69655586
-0.6808122992515564 0.442000150680542 0.795098066329956 0.07179809361696243 0.5603476166725159 0.1661626249551773  738318.6965558713
-0.6815356612205505 0.44207435846328735 0.7957325577735901 0.12888272106647491 0.5431599020957947 0.15336978435516357  738318.6965561252
-0.6830117702484131 0.4422161281108856 0.7970851063728333 0.29362159967422485 0.6129995584487915 0.1521136611700058  738318.6965563333
-0.6853046417236328 0.4423922896385193 0.7991456389427185 0.49536386132240295 0.6738232374191284 0.16855092346668243  738318.6965564792
-0.685079038143158 0.44945570826530457 0.8016987442970276 0.36480098962783813 0.6257041096687317 0.18101702630519867  738318.69655671
-0.6866458058357239 0.44964635372161865 0.8028801679611206 0.34437987208366394 0.5845097303390503 0.19289657473564148  738318.696556872
-0.6850493550300598 0.45519644021987915 0.8043450713157654 0.3462119400501251 0.5482791662216187 0.21132154762744904  738318.6965570564
-0.68666672706604 0.4555240869522095 0.8057167530059814 0.3552899956703186 0.3835216462612152 0.19440294802188873  738318.6965572762
-0.6882383227348328 0.45581042766571045 0.8071146607398987 0.433102548122406 0.3257266581058502 0.18574488162994385  738318.6965575645
-0.6890332102775574 0.4559432566165924 0.8078378438949585 0.4602343440055847 0.3003491163253784 0.17181852459907532  738318.6965576453
-0.6898334622383118 0.4560684263706207 0.8085616230964661 0.45969465374946594 0.2647564113140106 0.17434580624103546  738318.6965579051
-0.690638542175293 0.4561856985092163 0.8092864155769348 0.48236799240112305 0.24941463768482208 0.17304053902626038  738318.6965581013
-0.6914480328559875 0.45629480481147766 0.8100196719169617 0.5117871165275574 0.18813610076904297 0.16317741572856903  738318.6965583672
-0.692261278629303 0.4563952386379242 0.8107694983482361 0.49405503273010254 0.1446748673915863 0.16382905840873718  738318.6965585746
-0.6904698014259338 0.46244555711746216 0.811882495880127 0.4448326528072357 0.08823548257350922 0.17121142148971558  738318.696558819
-0.6928231716156006 0.46294552087783813 0.8142308592796326 0.26389795541763306 0.0004373653791844845 0.1480114459991455  738318.6965588655
-0.6936091780662537 0.46310070157051086 0.8149941563606262 0.2244751900434494 -0.02730342373251915 0.1598242223262787  738318.6965590268
-0.6951797008514404 0.4633992910385132 0.8165045380592346 0.1510913074016571 -0.12464132905006409 0.14495061337947845  738318.6965591889
-0.6959626078605652 0.46354398131370544 0.8172886967658997 0.14529141783714294 -0.18731944262981415 0.14782355725765228  738318.6965592927
-0.693851113319397 0.46931129693984985 0.8182576298713684 0.14241954684257507 -0.2849861681461334 0.13974891602993011  738318.6965593962
-0.6952707171440125 0.4697737395763397 0.8196868896484375 0.11718514561653137 -0.34857234358787537 0.13223296403884888  738318.6965598118
-0.695972204208374 0.47000181674957275 0.820381760597229 0.08984952419996262 -0.379634827375412 0.1158505529165268  738318.6965598699
-0.6966674327850342 0.4702281653881073 0.8210737109184265 0.048276521265506744 -0.37534189224243164 0.09212558716535568  738318.6965599387
-0.6973561644554138 0.47045332193374634 0.8217713236808777 0.04046396166086197 -0.35899248719215393 0.07701614499092102  738318.6965600655
-0.6980385780334473 0.4706777334213257 0.8224798440933228 0.023527070879936218 -0.31128421425819397 0.0679149180650711  738318.6965601695
-0.6987152099609375 0.47090157866477966 0.8231914639472961 -0.022538471966981888 -0.2989059090614319 0.04112886264920235  738318.6965603656
-0.696578860282898 0.47650110721588135 0.8240328431129456 -0.009025919251143932 -0.24379241466522217 0.04610489308834076  738318.6965605157
-0.6977850198745728 0.47713503241539 0.8254610896110535 -0.02520308829843998 -0.30713945627212524 0.022163107991218567  738318.6965608508
-0.6983804106712341 0.4774523973464966 0.8262332677841187 -0.043692611157894135 -0.3326149582862854 0.02650681883096695  738318.6965610929
-0.6995545029640198 0.4780885577201843 0.8278204202651978 0.021052898839116096 -0.35458335280418396 0.01545439101755619  738318.6965611313
-0.700133204460144 0.4784063696861267 0.8286075592041016 0.013140247203409672 -0.30233168601989746 0.005364259239286184  738318.6965612237
-0.7007063627243042 0.4787238836288452 0.8293794989585876 0.006246105767786503 -0.2883738875389099 0.007317538373172283  738318.6965613045
-0.7012744545936584 0.4790412187576294 0.8301514983177185 0.011871855705976486 -0.22041276097297668 0.00895420741289854  738318.6965617085
-0.7018381357192993 0.47935840487480164 0.8309381604194641 0.017164986580610275 -0.21531321108341217 0.002149825217202306  738318.6965619047
-0.7023980021476746 0.4796753227710724 0.8317505121231079 0.03008684515953064 -0.17512895166873932 0.00836894940584898  738318.6965620201
-0.6991704702377319 0.4852498173713684 0.8318929076194763 0.0614532046020031 -0.20628021657466888 0.019241809844970703  738318.6965625597
-0.6996526122093201 0.48565077781677246 0.8327020406723022 0.06745629757642746 -0.2331475019454956 0.02862144634127617  738318.6965627443
-0.7001310586929321 0.48605066537857056 0.8334888219833374 0.06338988989591599 -0.2508394718170166 0.0381954051554203  738318.6965629226
-0.7010756731033325 0.4868471026420593 0.8350006341934204 0.0701165720820427 -0.1886894553899765 0.06589266657829285  738318.6965630959
-0.7015420198440552 0.48724350333213806 0.8357589840888977 0.06963369250297546 -0.1466955691576004 0.07476871460676193  738318.6965632691
-0.7020054459571838 0.4876386821269989 0.8365387320518494 0.05838751420378685 -0.12293072789907455 0.09788031131029129  738318.696563419
-0.7024664878845215 0.4880327582359314 0.8373486995697021 0.06738410890102386 -0.09711403399705887 0.10910684615373611  738318.6965635116
-0.6997463703155518 0.49379855394363403 0.8380386233329773 0.06673187762498856 0.02179219201207161 0.13828866183757782  738318.6965636847
-0.7001742124557495 0.49432173371315 0.8389675617218018 0.040415480732917786 0.03630631044507027 0.15415413677692413  738318.696564123
-0.7009536623954773 0.49527016282081604 0.8406962156295776 0.058370307087898254 0.030877001583576202 0.18727250397205353  738318.6965643885
-0.7013441920280457 0.4957429766654968 0.8415797352790833 0.0792505294084549 -0.02609415352344513 0.20372462272644043  738318.6965644693
-0.7017347812652588 0.4962145984172821 0.8424663543701172 0.10231267660856247 0.003289304208010435 0.22708772122859955  738318.6965645847
-0.7021251320838928 0.4966847002506256 0.8433371782302856 0.07945822924375534 0.01602742075920105 0.2421811819076538  738318.6965648618
-0.7029069066047668 0.49762043356895447 0.8450593948364258 0.07121061533689499 0.14920584857463837 0.27952897548675537  738318.6965651622
-0.6995450258255005 0.5032490491867065 0.8450022339820862 0.08791431039571762 0.17300818860530853 0.29819610714912415  738318.6965653581
-0.700793445110321 0.5054060816764832 0.8483989238739014 -0.06475568562746048 0.2734163999557495 0.35407742857933044  738318.6965656006
-0.7014442086219788 0.5064876675605774 0.8502474427223206 -0.06811587512493134 0.2800697982311249 0.3949283957481384  738318.6965657395
-0.7017762660980225 0.5070302486419678 0.8511797785758972 -0.07058516144752502 0.31450748443603516 0.4094829261302948  738318.6965658803
-0.7024568319320679 0.5081186890602112 0.8530882000923157 -0.018611114472150803 0.4358736276626587 0.4418601989746094  738318.696566065
-0.6990835070610046 0.5133745074272156 0.8524500131607056 -0.022511731833219528 0.4665595293045044 0.44837045669555664  738318.6965661804
-0.6993590593338013 0.5139987468719482 0.8534268736839294 -0.0064930240623652935 0.5447822213172913 0.4652828574180603  738318.6965663882
-0.6996434926986694 0.5146231651306152 0.8544235825538635 -0.0048971776850521564 0.5828251838684082 0.48124340176582336  738318.6965665383
-0.6999378204345703 0.5152475833892822 0.8554448485374451 -0.017400328069925308 0.6479092836380005 0.4845418632030487  738318.6965666191
-0.7008908987045288 0.5171226859092712 0.8586663007736206 -0.0027422206476330757 0.7950072884559631 0.5183944702148438  738318.6965668963
-0.7012344002723694 0.5177483558654785 0.859735369682312 0.012461737729609013 0.8202287554740906 0.5264794826507568  738318.6965669428
-0.7019623517990112 0.5189988017082214 0.8618259429931641 0.021054428070783615 0.8679142594337463 0.5563956499099731  738318.6965670118
-0.6991842985153198 0.5248653292655945 0.8610037565231323 -0.06341230124235153 0.9948244690895081 0.5444446206092834  738318.696567335
-0.6995362043380737 0.5255663990974426 0.8619739413261414 -0.07126770168542862 1.100998044013977 0.5473731160163879  738318.696567531
-0.7002952098846436 0.5269718170166016 0.8638870120048523 -0.12824340164661407 1.335094928741455 0.5640299320220947  738318.6965675772
-0.7007063627243042 0.527677059173584 0.8648369908332825 -0.1286882907152176 1.3938250541687012 0.5722124576568604  738318.6965677156
-0.7011414170265198 0.528384268283844 0.8658086061477661 -0.1250263750553131 1.4392098188400269 0.5684154033660889  738318.6965678545
-0.7016018033027649 0.5290935039520264 0.8668224215507507 -0.10001950711011887 1.4516127109527588 0.5763985514640808  738318.6965679585
-0.7020877599716187 0.5298044681549072 0.8678669333457947 -0.060997601598501205 1.4736599922180176 0.57929527759552  738318.6965684257
-0.7002131342887878 0.536031186580658 0.8673093318939209 -0.02997060865163803 1.5282483100891113 0.5829254984855652  738318.6965685987
-0.7024358510971069 0.5392599105834961 0.8706997036933899 -0.06628581136465073 1.748497486114502 0.5937476754188538  738318.6965688755
-0.7030602097511292 0.5400684475898743 0.8714592456817627 -0.06676390022039413 1.7982693910598755 0.5867802500724792  738318.6965691595
-0.7037148475646973 0.5408778190612793 0.872216522693634 -0.0796312466263771 1.8366568088531494 0.5791746377944946  738318.6965692057
-0.7031794786453247 0.547519326210022 0.8719124794006348 -0.034666649997234344 1.9345417022705078 0.577392578125  738318.6965693037
-0.703924298286438 0.5484054684638977 0.8725255727767944 0.02794579230248928 1.9027215242385864 0.582485556602478  738318.6965694539
-0.7055058479309082 0.5501761436462402 0.8735766410827637 0.15229420363903046 1.8088603019714355 0.5788576602935791  738318.6965697544
-0.7063415050506592 0.5510584712028503 0.8740312457084656 0.1667848527431488 1.7645957469940186 0.570063591003418  738318.6965698351
-0.7072061896324158 0.5519379377365112 0.874435544013977 0.17771480977535248 1.7814459800720215 0.5725646018981934  738318.6965700428
-0.7080999612808228 0.5528143048286438 0.8747990131378174 0.1745808869600296 1.776182770729065 0.5529695153236389  738318.6965702622
-0.7090235948562622 0.5536874532699585 0.8751434683799744 0.21199989318847656 1.7930103540420532 0.5388290286064148  738318.6965703656
-0.7099769711494446 0.5545570850372314 0.8754630088806152 0.20984789729118347 1.8518999814987183 0.5293560028076172  738318.6965705156
-0.7119754552841187 0.5562851428985596 0.8760287165641785 0.2077573537826538 1.9438031911849976 0.49226900935173035  738318.6965707004
-0.7094104886054993 0.5610525608062744 0.8739879727363586 0.17792101204395294 1.9754067659378052 0.5174389481544495  738318.6965710236
-0.711467444896698 0.562902569770813 0.8743659257888794 0.20436586439609528 1.9896912574768066 0.4922310411930084  738318.6965712544
-0.7125471830368042 0.563822329044342 0.8745788335800171 0.23273012042045593 1.9385581016540527 0.48706236481666565  738318.6965713009
-0.7148074507713318 0.5656490921974182 0.8750423192977905 0.3259112536907196 1.8313082456588745 0.465400367975235  738318.6965714972
-0.7159855365753174 0.566554844379425 0.8752864003181458 0.34180280566215515 1.8013801574707031 0.47374969720840454  738318.6965715315
-0.7171947956085205 0.5674545764923096 0.8755346536636353 0.3794408142566681 1.7642229795455933 0.4591428339481354  738318.6965717347
-0.7184344530105591 0.5683479309082031 0.8757796883583069 0.47053763270378113 1.77105712890625 0.44504067301750183  738318.6965718501
-0.7197045087814331 0.5692337155342102 0.8760300278663635 0.5005618929862976 1.7963584661483765 0.4481496512889862  738318.6965719886
-0.722335696220398 0.5709794759750366 0.8765049576759338 0.562395453453064 1.899045467376709 0.42960232496261597  738318.6965720352
-0.7258651852607727 0.5800194144248962 0.8757266402244568 0.6910961270332336 2.0405170917510986 0.4290767014026642  738318.6965722692
-0.7288702130317688 0.5817684531211853 0.8762138485908508 0.8079450130462646 1.9384058713912964 0.44192150235176086  738318.6965724423
-0.7304239273071289 0.5826230645179749 0.8764631748199463 0.8799188733100891 1.8181730508804321 0.4503769278526306  738318.6965725693
-0.7302945256233215 0.5884712934494019 0.8758667707443237 1.0191028118133545 1.617734670639038 0.4586373567581177  738318.6965727999
-0.7351773381233215 0.5910460948944092 0.876735508441925 1.0937597751617432 1.3730602264404297 0.4918816387653351  738318.6965731813
-0.7368564605712891 0.591865062713623 0.877103328704834 1.0589340925216675 1.2980890274047852 0.49702808260917664  738318.6965733082
-0.7385586500167847 0.5926650762557983 0.8774874806404114 1.0383371114730835 1.3017393350601196 0.49948686361312866  738318.696573412
-0.7402826547622681 0.5934471487998962 0.8778609037399292 1.007169485092163 1.328326940536499 0.5038990378379822  738318.696573539
-0.7420287132263184 0.594211757183075 0.8782191276550293 0.9641246795654297 1.3513189554214478 0.5122725367546082  738318.6965736541
-0.743397057056427 0.6002897620201111 0.8783244490623474 0.7256237864494324 1.4832756519317627 0.49937453866004944  738318.6965737349
-0.7488291263580322 0.6025744080543518 0.8796030282974243 0.5627949833869934 1.2536803483963013 0.5199810266494751  738318.6965739538
-0.7546526193618774 0.6048348546028137 0.8810650706291199 0.46494385600090027 0.8088136911392212 0.5520398616790771  738318.6965741271
-0.7565656304359436 0.6055462956428528 0.8815314769744873 0.4522642195224762 0.7117911577224731 0.5696893334388733  738318.6965742313
-0.7584918141365051 0.6062495708465576 0.8820180296897888 0.3852734863758087 0.6419171094894409 0.5843097567558289  738318.6965743813
-0.757415235042572 0.6107580065727234 0.8819059133529663 0.3895907998085022 0.6125338673591614 0.5893411040306091  738318.6965745772
-0.7631688714027405 0.6129719018936157 0.8832367062568665 0.23193077743053436 0.5723719596862793 0.5928764343261719  738318.6965749466
-0.7651065587997437 0.6136994957923889 0.8836214542388916 0.1689729243516922 0.5795489549636841 0.5819887518882751  738318.6965749928
-0.7670540809631348 0.6144235730171204 0.8840025663375854 0.08414467424154282 0.5968309044837952 0.5611951947212219  738318.6965750853
-0.769011914730072 0.6151453256607056 0.8844113945960999 0.01443809736520052 0.5937660932540894 0.5652438998222351  738318.6965751313
-0.7729582786560059 0.6165871620178223 0.8852943778038025 -0.10400055348873138 0.45580044388771057 0.5255505442619324  738318.696575385
-0.7749446630477905 0.6173092722892761 0.8857389092445374 -0.13750657439231873 0.4018647372722626 0.5254473090171814  738318.6965755809
-0.7749765515327454 0.6228156685829163 0.8860747814178467 -0.2264147847890854 0.1682496815919876 0.47223392128944397  738318.6965757887
-0.7788828611373901 0.6244432330131531 0.8870525360107422 -0.2540748417377472 0.0035533253103494644 0.4479244649410248  738318.6965760195
-0.7808376550674438 0.6252631545066833 0.8875188827514648 -0.2863968312740326 -0.09996481239795685 0.4360482096672058  738318.6965760542
-0.7827916741371155 0.6260877251625061 0.8879877924919128 -0.28941065073013306 -0.1114678904414177 0.4182613790035248  738318.6965762384
-0.7847439050674438 0.6269171833992004 0.8884515166282654 -0.28043559193611145 -0.11590227484703064 0.4106769561767578  738318.6965763076
-0.7905893921852112 0.629433810710907 0.8897153735160828 -0.255261093378067 -0.04001421853899956 0.3826494514942169  738318.6965764808
-0.7925354838371277 0.6302817463874817 0.890117883682251 -0.18753094971179962 0.10492765158414841 0.37908703088760376  738318.6965766078
-0.7895260453224182 0.6356456875801086 0.8903619050979614 -0.07507114857435226 0.16822661459445953 0.3851763904094696  738318.6965767463
-0.796728253364563 0.639336109161377 0.8921338319778442 0.26327234506607056 0.4704558253288269 0.39722079038619995  738318.6965770002
-0.7985450029373169 0.6402519941329956 0.8925999402999878 0.34284183382987976 0.5049996972084045 0.39624059200286865  738318.696577185
-0.8022043108940125 0.642066478729248 0.8935927152633667 0.4312728941440582 0.4907574951648712 0.4056716859340668  738318.6965773581
-0.7994605302810669 0.6458542346954346 0.8936964273452759 0.49192166328430176 0.43448325991630554 0.4156681001186371  738318.6965775428
-0.8012180328369141 0.646782636642456 0.8941759467124939 0.5259826183319092 0.4380936026573181 0.42280909419059753  738318.6965777252
-0.8047550320625305 0.6486129760742188 0.8950561285018921 0.6434457302093506 0.5671923160552979 0.4403875470161438  738318.6965777598
-0.8065358400344849 0.6495132446289062 0.8954418301582336 0.6762251257896423 0.6034535765647888 0.4434252977371216  738318.6965778754
-0.8083261847496033 0.6504026055335999 0.8957918286323547 0.7251140475273132 0.6521064043045044 0.4466121196746826  738318.6965779214
-0.8101269602775574 0.6512801051139832 0.8961229920387268 0.7376768589019775 0.7422724366188049 0.45712271332740784  738318.6965782681
-0.8137654662132263 0.6529972553253174 0.8967626094818115 0.8008250594139099 0.9830989837646484 0.4648120701313019  738318.696578372
-0.8156073689460754 0.6538357138633728 0.8970917463302612 0.825596034526825 1.107108235359192 0.46717745065689087  738318.696578464
-0.8174670934677124 0.6546601057052612 0.8974214196205139 0.8664435744285583 1.2064288854599 0.45530977845191956  738318.696578672
-0.814738929271698 0.6584060192108154 0.8972961902618408 0.9237987399101257 1.3053523302078247 0.45540711283683777  738318.6965788564
-0.8184168338775635 0.6600603461265564 0.8978573083877563 0.9657360911369324 1.3771116733551025 0.4253263473510742  738318.696579099
-0.8202900886535645 0.6608632206916809 0.8981263637542725 0.9969346523284912 1.3848254680633545 0.42159032821655273  738318.6965794913
-0.8243027329444885 0.6624924540519714 0.8987643122673035 1.0429396629333496 1.4411689043045044 0.3965226113796234  738318.6965796183
-0.826252281665802 0.6632403135299683 0.8991155624389648 1.0773749351501465 1.4069010019302368 0.3754335045814514  738318.6965797337
-0.8302240371704102 0.6646804213523865 0.8998259902000427 1.1273679733276367 1.3777583837509155 0.34821614623069763  738318.6965799303
-0.8278176784515381 0.6683303117752075 0.8998686075210571 1.1882096529006958 1.301491379737854 0.32526758313179016  738318.6965803225
-0.8297786712646484 0.6690451502799988 0.9001618027687073 1.2251875400543213 1.2795584201812744 0.31448468565940857  738318.6965804378
-0.8357911109924316 0.6710631251335144 0.9009910225868225 1.2936497926712036 1.2522519826889038 0.28342893719673157  738318.696580484
-0.839907169342041 0.6722970604896545 0.9015560746192932 1.3716540336608887 1.3444151878356934 0.25707224011421204  738318.6965805533
-0.8419994115829468 0.6728784441947937 0.901877224445343 1.381132960319519 1.4111011028289795 0.24541442096233368  738318.6965807268
-0.8506213426589966 0.6749650239944458 0.9031510353088379 1.4893643856048584 1.863023042678833 0.19347304105758667  738318.6965808995
-0.8476383686065674 0.6785237193107605 0.9030610918998718 1.5378144979476929 1.931589126586914 0.19305360317230225  738318.6965812574
-0.8541476130485535 0.6798033714294434 0.9037863612174988 1.7038334608078003 1.9735924005508423 0.163665771484375  738318.6965814421
-0.8563858270645142 0.680172324180603 0.904047966003418 1.761671781539917 1.9573235511779785 0.15071894228458405  738318.6965816387
-0.8586575984954834 0.6805115342140198 0.9043084979057312 1.7852355241775513 1.899453043937683 0.1413457840681076  738318.6965817887
-0.8609619736671448 0.680820643901825 0.9045581221580505 1.774284839630127 1.8195648193359375 0.12319127470254898  738318.6965819735
-0.862163782119751 0.6841505169868469 0.9045911431312561 1.8072030544281006 1.780678391456604 0.08257268369197845  738318.696582376
-0.8693166375160217 0.6848238706588745 0.9050535559654236 1.7914379835128784 1.6768007278442383 0.05650988593697548  738318.6965824916
-0.8717583417892456 0.6849882006645203 0.9051633477210999 1.7793670892715454 1.7072161436080933 0.04948365315794945  738318.6965825951
-0.8792538046836853 0.6853044033050537 0.9052908420562744 1.7726831436157227 1.8968266248703003 0.04911275953054428  738318.6965828605
-0.8818124532699585 0.6853508949279785 0.9052768349647522 1.7526696920394897 2.0220489501953125 0.06510166823863983  738318.6965829185
-0.8784539103507996 0.6881163716316223 0.9049663543701172 1.7476537227630615 2.048760414123535 0.03824794664978981  738318.696583103
-0.8887072801589966 0.6880241632461548 0.9048542380332947 1.7390199899673462 2.2398035526275635 0.089738629758358  738318.696583392
-0.8940607905387878 0.6877961754798889 0.9048370718955994 1.6693485975265503 2.1527175903320312 0.08914788067340851  738318.6965834608
-0.8967939615249634 0.6876381635665894 0.9048306345939636 1.6109564304351807 2.072411298751831 0.10235067456960678  738318.6965837613
-0.8995634317398071 0.6874518394470215 0.9048287272453308 1.5433343648910522 1.9174764156341553 0.10387270152568817  738318.696583969
-0.9023676514625549 0.6872379183769226 0.904845654964447 1.4768356084823608 1.7938406467437744 0.10291226953268051  738318.6965840729
-0.9033219218254089 0.6899563670158386 0.9050002694129944 1.3332897424697876 1.590726375579834 0.08307473361492157  738318.6965841769
-0.9089884161949158 0.6894326210021973 0.9050867557525635 1.2011862993240356 1.4609819650650024 0.0852251946926117  738318.6965843728
-0.9118605256080627 0.689138650894165 0.905123233795166 1.1315031051635742 1.4046480655670166 0.07808368653059006  738318.6965844189
-0.9150478839874268 0.6887924075126648 0.9051551222801208 1.0549389123916626 1.331662893295288 0.0819740816950798  738318.6965846387
-0.9179699420928955 0.6884580254554749 0.9051771759986877 1.0118434429168701 1.264089584350586 0.0791463553905487  738318.6965848464
-0.9238795042037964 0.6877369284629822 0.9052229523658752 0.8648393750190735 1.1294645071029663 0.07338859885931015  738318.6965849615
-0.9268644452095032 0.6873524785041809 0.9052380323410034 0.8003695011138916 1.0455704927444458 0.061488449573516846  738318.6965850769
-0.9256969690322876 0.6903954744338989 0.905383288860321 0.7186189889907837 0.9987329244613647 0.058678291738033295  738318.6965853309
-0.9316575527191162 0.6896657347679138 0.9054301381111145 0.537686288356781 0.7983511686325073 0.023461420089006424  738318.6965856169
-0.9346601963043213 0.6892853379249573 0.9054406881332397 0.39756450057029724 0.7097878456115723 0.019451696425676346  738318.6965856517
-0.9407022595405579 0.6885024905204773 0.9054356813430786 0.2870226204395294 0.5329779982566833 -0.03194485232234001  738318.6965858826
-0.9437386989593506 0.6881028413772583 0.9054334163665771 0.2284996658563614 0.4763779640197754 -0.04248896241188049  738318.6965860901
-0.9467838406562805 0.6876987814903259 0.9054367542266846 0.2070690542459488 0.43297427892684937 -0.050302911549806595  738318.6965862518
-0.9498368501663208 0.6872909665107727 0.905451238155365 0.21027801930904388 0.3753676116466522 -0.0706353634595871  738318.696586321
-0.9528968334197998 0.686879575252533 0.9054710268974304 0.20022453367710114 0.332293301820755 -0.07567036896944046  738318.6965863787
-0.9621091485023499 0.6856241226196289 0.9055136442184448 0.2175847291946411 0.07749185711145401 -0.09514768421649933  738318.6965864598
-0.9593371748924255 0.6896025538444519 0.9060367345809937 0.2549949884414673 -0.0340985432267189 -0.10810302942991257  738318.6965866389
-0.9682961106300354 0.6884785294532776 0.9058716297149658 0.17263005673885345 -0.4912303686141968 -0.11838500946760178  738318.6965868467
-0.9771914482116699 0.6873264312744141 0.9056837558746338 -0.06106982007622719 -0.9479357600212097 -0.12679913640022278  738318.6965869275
-0.9745475053787231 0.6907853484153748 0.9063255190849304 -0.06502006202936172 -1.0283482074737549 -0.1382569670677185  738318.696587147
-0.9773958325386047 0.6904497742652893 0.9062992334365845 -0.14225833117961884 -1.1252714395523071 -0.1465899795293808  738318.6965873546
-0.9830349087715149 0.6897850036621094 0.9062808156013489 -0.25945332646369934 -1.2179971933364868 -0.14810137450695038  738318.696587574
-0.9858234524726868 0.6894580721855164 0.9062845706939697 -0.2616104483604431 -1.2815158367156982 -0.15965180099010468  738318.6965877125
-0.98859041929245 0.6891355514526367 0.9062963724136353 -0.25229671597480774 -1.2943891286849976 -0.1758497953414917  738318.6965877474
-0.9913354516029358 0.6888173222541809 0.9063022136688232 -0.2196318805217743 -1.3029062747955322 -0.18248069286346436  738318.6965879251
-0.9967597723007202 0.688191831111908 0.9062677621841431 -0.05783071368932724 -1.3342089653015137 -0.18868115544319153  738318.6965880523
-0.9994387030601501 0.6878824234008789 0.906233549118042 0.017713841050863266 -1.3819116353988647 -0.19087138772010803  738318.6965884102
-1.0022410154342651 0.6912213563919067 0.9067309498786926 0.20571422576904297 -1.7085788249969482 -0.1932257115840912  738318.6965886523
-1.0096205472946167 0.6904451847076416 0.9063054919242859 0.31744566559791565 -2.0653467178344727 -0.19748303294181824  738318.6965888139
-1.012017011642456 0.6901772618293762 0.9060853719711304 0.31490465998649597 -2.1548655033111572 -0.19586360454559326  738318.6965890236
-1.0143786668777466 0.689903974533081 0.9058312177658081 0.28450915217399597 -2.228093147277832 -0.19901347160339355  738318.6965890697
-1.016703724861145 0.6896255016326904 0.905551552772522 0.283302366733551 -2.331523895263672 -0.2066221535205841  738318.6965892314
-1.0189909934997559 0.689342200756073 0.9052427411079407 0.22773495316505432 -2.42399263381958 -0.20982475578784943  738318.6965893352
-1.0212383270263672 0.6890544295310974 0.9049151539802551 0.18617095053195953 -2.4896492958068848 -0.2163814753293991  738318.6965894622
-1.0175272226333618 0.69301438331604 0.9053418636322021 0.23332829773426056 -2.556736469268799 -0.21740218997001648  738318.6965895892
-1.0218032598495483 0.6924877166748047 0.9047122597694397 0.1544876992702484 -2.623579502105713 -0.24012452363967896  738318.6965899355
-1.023769736289978 0.6922314763069153 0.9044317603111267 0.13280487060546875 -2.6275758743286133 -0.24184241890907288  738318.6965900636
-1.025691032409668 0.6919726133346558 0.9041566848754883 0.1119714304804802 -2.667583703994751 -0.25126519799232483  738318.6965901327
-1.02756667137146 0.69171142578125 0.9038877487182617 0.07543834298849106 -2.672154664993286 -0.2751062512397766  738318.6965902827
-1.0293962955474854 0.6914483904838562 0.9036261439323425 0.10208810120820999 -2.6512393951416016 -0.2854022681713104  738318.6965905137
-1.0329190492630005 0.6909167766571045 0.9030928611755371 0.11482860147953033 -2.697067975997925 -0.32818636298179626  738318.6965908601
-1.0362601280212402 0.6903762817382812 0.9024988412857056 0.2090548425912857 -2.786607027053833 -0.34173306822776794  738318.69659101
-1.0335004329681396 0.6942810416221619 0.9019790291786194 0.5302602052688599 -2.916353702545166 -0.36025166511535645  738318.6965913232
-1.0348291397094727 0.6940436959266663 0.901569128036499 0.6014021635055542 -2.8998539447784424 -0.3607390820980072  738318.6965915083
-1.0361101627349854 0.6937968134880066 0.9011176228523254 0.6707548499107361 -2.8831350803375244 -0.36687153577804565  738318.6965916235
-1.037343144416809 0.6935390830039978 0.9006366729736328 0.7271933555603027 -2.840263843536377 -0.36533400416374207  738318.6965916698
-1.0385273694992065 0.6932691335678101 0.900150716304779 0.7628918290138245 -2.7665185928344727 -0.3631402254104614  738318.6965917735
-1.0396636724472046 0.6929860711097717 0.8996654748916626 0.8082340359687805 -2.656158685684204 -0.35611677169799805  738318.696591843
-1.0407533645629883 0.6926891803741455 0.899183988571167 0.8232719302177429 -2.519280433654785 -0.3421361446380615  738318.6965920624
-1.034932255744934 0.6967470645904541 0.8990438580513 0.8713662624359131 -2.4101126194000244 -0.33291083574295044  738318.6965921082
-1.0366356372833252 0.6961884498596191 0.8979775905609131 0.8735447525978088 -2.2152631282806396 -0.3042643666267395  738318.6965923972
-1.0374300479888916 0.6958869695663452 0.8974108695983887 0.8801074624061584 -2.138300895690918 -0.2942145764827728  738318.696592593
-1.0389084815979004 0.6952383518218994 0.8962705135345459 0.9364985823631287 -2.13950252532959 -0.2624725103378296  738318.6965927549
-1.0402411222457886 0.6945258378982544 0.8951486349105835 1.0188440084457397 -2.161421775817871 -0.2414403110742569  738318.6965930106
-1.0408531427383423 0.6941444873809814 0.8945719599723816 1.0656542778015137 -2.196744441986084 -0.23380078375339508  738318.696593091
-1.0358351469039917 0.6980854272842407 0.8937745094299316 1.1457464694976807 -2.2012970447540283 -0.23972433805465698  738318.6965932873
-1.0362743139266968 0.6977355480194092 0.8931332230567932 1.1851813793182373 -2.1833655834198 -0.21838082373142242  738318.6965935066
-1.0370463132858276 0.6969780921936035 0.8917092680931091 1.2276084423065186 -2.0510079860687256 -0.17869755625724792  738318.696593836
-1.0373808145523071 0.6965698003768921 0.8909309506416321 1.2521437406539917 -1.980871558189392 -0.16759350895881653  738318.6965940786
-1.0376825332641602 0.6961411833763123 0.8901060819625854 1.2450826168060303 -1.8683923482894897 -0.15446767210960388  738318.6965942169
-1.0379524230957031 0.6956918835639954 0.8892455101013184 1.2293455600738525 -1.7491285800933838 -0.13631115853786469  738318.6965943208
-1.0381920337677002 0.6952217817306519 0.8883622884750366 1.2345927953720093 -1.631378412246704 -0.12789396941661835  738318.6965944248
-1.0384033918380737 0.6947309970855713 0.8874566555023193 1.2433927059173584 -1.5776063203811646 -0.12275245785713196  738318.6965946325
-1.0336202383041382 0.6976489424705505 0.8855449557304382 1.2808315753936768 -1.4879943132400513 -0.10084670037031174  738318.6965948062
-1.0336637496948242 0.6966090798377991 0.8837489485740662 1.3454101085662842 -1.5348834991455078 -0.0911673754453659  738318.6965950138
-1.0336471796035767 0.6960552930831909 0.8828436732292175 1.352742314338684 -1.574326753616333 -0.08791013062000275  738318.6965952219
-1.0336040258407593 0.6954783797264099 0.8819377422332764 1.343271255493164 -1.580015778541565 -0.07361134886741638  738318.6965954755
-1.0334326028823853 0.6942514777183533 0.8802871704101562 1.2653285264968872 -1.5184903144836426 -0.05514269322156906  738318.6965956949
-1.0333045721054077 0.6936018466949463 0.8795638084411621 1.2204407453536987 -1.463209867477417 -0.05147772654891014  738318.6965959476
-1.0331507921218872 0.6929307579994202 0.8788503408432007 1.1603010892868042 -1.3753694295883179 -0.04321206361055374  738318.6965960861
-1.0327720642089844 0.6915289759635925 0.8773981332778931 1.0076251029968262 -1.2963979244232178 -0.06310893595218658  738318.6965963055
-1.0278770923614502 0.6949950456619263 0.8760877847671509 0.9873505234718323 -1.2437115907669067 -0.054279495030641556  738318.6965964555
-1.0275181531906128 0.6942358016967773 0.8753337264060974 0.9448778629302979 -1.2259809970855713 -0.05969366058707237  738318.6965968139
-1.027168869972229 0.6935275793075562 0.8746839165687561 0.8965820074081421 -1.2083063125610352 -0.07384831458330154  738318.696597103
-1.0267983675003052 0.6928032040596008 0.8740562200546265 0.9001774787902832 -1.1971391439437866 -0.07074213027954102  738318.6965971724
-1.0259952545166016 0.6913079619407654 0.8728175163269043 0.9219428300857544 -1.1856937408447266 -0.07796574383974075  738318.6965972302
-1.025108814239502 0.6897488236427307 0.8716490864753723 0.9379990100860596 -1.1398297548294067 -0.07114186882972717  738318.6965973804
-1.0246343612670898 0.6889441013336182 0.8711226582527161 0.9214316606521606 -1.1443848609924316 -0.08355791121721268  738318.6965974845
-1.024139642715454 0.6881228089332581 0.8706334829330444 0.9107103943824768 -1.0921176671981812 -0.10080970823764801  738318.696597588
-1.0192023515701294 0.6908107995986938 0.8693856596946716 0.8584986329078674 -1.037980318069458 -0.0903763473033905  738318.6965979462
-1.018585443496704 0.6899958252906799 0.8689665198326111 0.8037070631980896 -1.039795160293579 -0.111530601978302  738318.6965982377
-1.0172970294952393 0.6883230209350586 0.8681994080543518 0.7036536335945129 -1.0336467027664185 -0.11086156219244003  738318.69659848
-1.0152310132980347 0.6857208609580994 0.8670660853385925 0.601446270942688 -1.096222162246704 -0.09432638436555862  738318.6965987108
-1.011183500289917 0.6891597509384155 0.8657471537590027 0.48602747917175293 -1.1335391998291016 -0.16849130392074585  738318.6965990687
-1.009581208229065 0.6875627040863037 0.865092933177948 0.46523135900497437 -1.1450763940811157 -0.1675749272108078  738318.6965991725
-1.007900595664978 0.6859327554702759 0.8644653558731079 0.5176820755004883 -1.084975004196167 -0.16846801340579987  738318.6965993824
