% x y z r p yw  738318.7025671859
-0.9961207509040833 -0.8282285928726196 0.8926721215248108 3.4945831298828125 -7.002749443054199 -2.381227731704712  738318.7026543114
-0.9923182129859924 -0.8297861814498901 0.8900613188743591 3.724066972732544 -6.570390224456787 -2.398308038711548  738318.7026544958
-0.9887871146202087 -0.8263369202613831 0.8890528678894043 3.9438300132751465 -6.154234886169434 -2.3672187328338623  738318.7026545419
-0.9851433038711548 -0.8229626417160034 0.888103723526001 4.163785457611084 -5.644474506378174 -2.3364906311035156  738318.7026547035
-0.9813939332962036 -0.8196682929992676 0.887231707572937 4.343331813812256 -5.152272701263428 -2.292745351791382  738318.7026548077
-0.9775494337081909 -0.8164560198783875 0.8864243030548096 4.50287389755249 -4.647219181060791 -2.2587931156158447  738318.7026550729
-0.9736188054084778 -0.8133285641670227 0.8856830596923828 4.66583776473999 -4.062968730926514 -2.2343666553497314  738318.7026552345
-0.969611406326294 -0.8102895617485046 0.8850210905075073 4.811976432800293 -3.4597373008728027 -2.1933882236480713  738318.7026552807
-0.9655380249023438 -0.8073417544364929 0.8844437003135681 4.940749168395996 -2.897998809814453 -2.160729169845581  738318.7026553615
-0.9582577347755432 -0.8077282309532166 0.8823365569114685 5.1181817054748535 -2.408198356628418 -2.2192866802215576  738318.7026555578
-0.9540208578109741 -0.8050405383110046 0.8818670511245728 5.229099273681641 -1.8911285400390625 -2.1731066703796387  738318.7026557658
-0.9497484564781189 -0.8024497628211975 0.8814699053764343 5.296432971954346 -1.403184413909912 -2.117260217666626  738318.7026559848
-0.9454497694969177 -0.7999574542045593 0.8811484575271606 5.357601642608643 -0.9342493414878845 -2.064880132675171  738318.7026561121
-0.9411336183547974 -0.7975634336471558 0.8808923959732056 5.384649276733398 -0.4943469762802124 -2.026458263397217  738318.7026563889
-0.9368082880973816 -0.7952672839164734 0.8806918859481812 5.373943328857422 -0.10847848653793335 -1.96713125705719  738318.7026565504
-0.932481050491333 -0.7930692434310913 0.8805512189865112 5.3725810050964355 0.29213395714759827 -1.9131860733032227  738318.7026566762
-0.9281591176986694 -0.7909693121910095 0.8804741501808167 5.356586456298828 0.6557438373565674 -1.8597850799560547  738318.7026567108
-0.9238494038581848 -0.788968026638031 0.880469799041748 5.3445329666137695 1.0239921808242798 -1.7925076484680176  738318.7026570914
-0.9195583462715149 -0.7870638966560364 0.880527913570404 5.325638294219971 1.4424151182174683 -1.726190447807312  738318.7026572068
-0.9152922630310059 -0.7852544784545898 0.8806264400482178 5.307709693908691 1.8497081995010376 -1.6691910028457642  738318.7026573224
-0.9110586047172546 -0.7835397124290466 0.8807701468467712 5.293691158294678 2.2491915225982666 -1.6114165782928467  738318.7026574265
-0.9025031328201294 -0.7808284163475037 0.8785917162895203 5.16132116317749 3.016899347305298 -1.7298717498779297  738318.7026575301
-0.8984153270721436 -0.7792349457740784 0.8787878751754761 5.154871940612793 3.3711729049682617 -1.6635656356811523  738318.7026577035
-0.89438796043396 -0.7777330875396729 0.8790344595909119 5.152364730834961 3.7274320125579834 -1.5836734771728516  738318.7026579229
-0.890426516532898 -0.7763217091560364 0.8793203234672546 5.154249668121338 4.066839218139648 -1.5065950155258179  738318.7026580153
-0.8865369558334351 -0.7750005722045898 0.8796434998512268 5.15440559387207 4.36928129196167 -1.4203201532363892  738318.702658512
-0.8827248811721802 -0.773769736289978 0.8800041675567627 5.114780902862549 4.710265159606934 -1.3331220149993896  738318.7026586159
-0.8789946436882019 -0.772627592086792 0.8803878426551819 5.049304008483887 4.956540584564209 -1.2538232803344727  738318.7026588467
-0.8753512501716614 -0.7715731859207153 0.8807938694953918 4.999664306640625 5.165302276611328 -1.1728540658950806  738318.7026590662
-0.8717989921569824 -0.7706059813499451 0.8812271952629089 4.933700084686279 5.38331937789917 -1.0988852977752686  738318.70265917
-0.8636116981506348 -0.7679485082626343 0.879262387752533 4.714843273162842 5.724205493927002 -1.172681450843811  738318.7026593316
-0.8602386116981506 -0.767060399055481 0.8796826004981995 4.668763160705566 5.872483253479004 -1.0802606344223022  738318.7026595855
-0.8569697141647339 -0.7662537693977356 0.8801320791244507 4.589177131652832 5.9875569343566895 -0.9886360168457031  738318.7026597125
-0.8538066148757935 -0.7655271887779236 0.8806059956550598 4.518813610076904 6.096301078796387 -0.8943124413490295  738318.7026598856
-0.8507503867149353 -0.7648789286613464 0.8810970783233643 4.413569450378418 6.222357749938965 -0.8119024634361267  738318.7026600015
-0.84780353307724 -0.764307975769043 0.8816105127334595 4.335476398468018 6.274665832519531 -0.7348753809928894  738318.7026601165
-0.8449660539627075 -0.7638118863105774 0.8821333646774292 4.277277946472168 6.32616662979126 -0.6633270978927612  738318.7026602665
-0.8422385454177856 -0.7633894681930542 0.8826635479927063 4.190399169921875 6.3655829429626465 -0.5847381353378296  738318.7026603475
-0.8396239280700684 -0.763041079044342 0.883221447467804 4.08582878112793 6.342517375946045 -0.49593669176101685  738318.7026605312
-0.8313451409339905 -0.7603403925895691 0.8818327784538269 3.879849910736084 6.464279651641846 -0.5188072919845581  738318.7026605657
-0.8289192318916321 -0.7600674033164978 0.8823778629302979 3.803598642349243 6.453065395355225 -0.4439050853252411  738318.7026606346
-0.8266041278839111 -0.7598595023155212 0.8829169273376465 3.72296142578125 6.430582523345947 -0.3655884265899658  738318.7026608544
-0.8244001269340515 -0.7597158551216125 0.8834554553031921 3.638376235961914 6.35184907913208 -0.2952679991722107  738318.7026611791
-0.8223062753677368 -0.7596352100372314 0.883994460105896 3.549635410308838 6.312451362609863 -0.2300543189048767  738318.7026612714
-0.8203204274177551 -0.7596155405044556 0.8845237493515015 3.461266040802002 6.268267631530762 -0.17977671325206757  738318.7026614677
-0.8184425830841064 -0.7596558332443237 0.8850501179695129 3.3828606605529785 6.1595282554626465 -0.1261155605316162  738318.7026615604
-0.8166709542274475 -0.7597545981407166 0.8855704069137573 3.320683002471924 6.064390659332275 -0.0775119736790657  738318.7026617447
-0.8150027394294739 -0.7599101066589355 0.8860750198364258 3.21050763130188 5.964322566986084 -0.033169105648994446  738318.7026619756
-0.8134377002716064 -0.7601217031478882 0.8865777254104614 3.115150213241577 5.806850433349609 0.013242303393781185  738318.7026620336
-0.8119741678237915 -0.7603880763053894 0.8870851397514343 2.994436264038086 5.672325611114502 0.04645362123847008  738318.7026621028
-0.8042784929275513 -0.7569730877876282 0.8854937553405762 2.8786330223083496 5.701628684997559 0.010755173861980438  738318.7026623238
-0.8042784929275513 -0.7569730877876282 0.8854937553405762 2.8786330223083496 5.701628684997559 0.010755173861980438  738318.7026625547
-0.8029555082321167 -0.7572848200798035 0.8859457969665527 2.7654170989990234 5.487246990203857 0.04673697054386139  738318.7026626702
-0.8017274141311646 -0.7576446533203125 0.8863866925239563 2.629939317703247 5.276240825653076 0.08341152220964432  738318.7026628548
-0.8005883693695068 -0.7580493688583374 0.8867917656898499 2.483201026916504 5.128137111663818 0.11375528573989868  738318.7026630394
-0.7995353937149048 -0.7584967613220215 0.8871613144874573 2.373739719390869 4.904938220977783 0.14303895831108093  738318.7026633396
-0.7985673546791077 -0.7589856386184692 0.887518048286438 2.3079912662506104 4.678300380706787 0.18210530281066895  738318.7026634206
-0.7976806163787842 -0.7595146298408508 0.8878656029701233 2.2107317447662354 4.559020519256592 0.20933546125888824  738318.7026636862
-0.7968719005584717 -0.7600822448730469 0.8881996273994446 2.141611337661743 4.343671798706055 0.230499267578125  738318.7026638014
-0.7961379289627075 -0.7606868147850037 0.8885145783424377 2.0980570316314697 4.149188041687012 0.2464025765657425  738318.7026639748
-0.7954759001731873 -0.7613276839256287 0.8888185620307922 2.017824649810791 3.9935686588287354 0.24755187332630157  738318.7026640438
-0.7948836088180542 -0.7620042562484741 0.889123797416687 1.967624306678772 3.7806649208068848 0.26100125908851624  738318.7026642861
-0.7943570613861084 -0.7627149224281311 0.8894178867340088 1.879637598991394 3.5844831466674805 0.25963810086250305  738318.7026644939
-0.7938911318778992 -0.7634576559066772 0.8896740674972534 1.7705799341201782 3.3671460151672363 0.26239150762557983  738318.702664633
-0.7934821844100952 -0.7642306685447693 0.8898868560791016 1.6684705018997192 3.139559507369995 0.26616114377975464  738318.7026647138
-0.7866445183753967 -0.7572704553604126 0.887436032295227 1.5381348133087158 3.143186330795288 0.2927045226097107  738318.7026648524
-0.7863225340843201 -0.7579578161239624 0.887520968914032 1.3975751399993896 2.848907709121704 0.2926572859287262  738318.7026649677
-0.7860504388809204 -0.7586699724197388 0.8875786662101746 1.2182564735412598 2.528836488723755 0.2912598252296448  738318.7026651411
-0.7856347560882568 -0.7601574659347534 0.8876006603240967 0.8814538717269897 1.840038776397705 0.2663041651248932  738318.7026652679
-0.7757048606872559 -0.754031240940094 0.8861976265907288 0.689257800579071 1.2703794240951538 0.3694863021373749  738318.7026654294
-0.7742913365364075 -0.7566909790039062 0.8856578469276428 0.4974322021007538 0.035729750990867615 0.2887642979621887  738318.702665665
-0.7739570736885071 -0.7573775053024292 0.8854663968086243 0.5351226925849915 -0.18068264424800873 0.25997257232666016  738318.7026659076
-0.7729344367980957 -0.7594917416572571 0.8848264813423157 0.6480208039283752 -0.6060671806335449 0.17362384498119354  738318.7026660166
-0.7644868493080139 -0.7533975839614868 0.8832855820655823 0.6435724496841431 -0.845230758190155 0.16829733550548553  738318.7026662475
-0.7639694809913635 -0.7540009021759033 0.8830212354660034 0.5886808633804321 -0.9803505539894104 0.14361143112182617  738318.7026663171
-0.7634364366531372 -0.7546147704124451 0.8827592134475708 0.5390595197677612 -1.1014211177825928 0.11667704582214355  738318.7026664673
-0.7623152732849121 -0.7558702826499939 0.8821964859962463 0.4637095332145691 -1.404214859008789 0.06547773629426956  738318.7026665591
-0.7617221474647522 -0.7565105557441711 0.8819012641906738 0.4285098910331726 -1.5455180406570435 0.034850168973207474  738318.7026666288
-0.7611032724380493 -0.7571585774421692 0.8816225528717041 0.421934574842453 -1.678650975227356 0.009250880219042301  738318.7026667554
-0.7604565024375916 -0.7578139901161194 0.8813540935516357 0.4293881058692932 -1.817168116569519 -0.02407248504459858  738318.7026669747
-0.7512805461883545 -0.7509612441062927 0.8800669312477112 0.5201206207275391 -2.063349962234497 -0.05329495295882225  738318.7026671709
-0.7494341135025024 -0.7520502805709839 0.8795313239097595 0.6616406440734863 -2.1246609687805176 -0.08483444899320602  738318.7026674827
-0.7484559416770935 -0.7526105642318726 0.8792846202850342 0.7260043621063232 -2.1763269901275635 -0.09859107434749603  738318.7026676788
-0.7474401593208313 -0.7531830668449402 0.8790577054023743 0.7807006239891052 -2.1616997718811035 -0.10715187340974808  738318.7026677596
-0.7463865876197815 -0.753768801689148 0.8788495659828186 0.8383649587631226 -2.129615068435669 -0.12003392726182938  738318.7026678661
-0.7441679835319519 -0.7549840211868286 0.8784834146499634 0.9441595077514648 -2.014651298522949 -0.1538626253604889  738318.7026681895
-0.7430048584938049 -0.7556153535842896 0.8783178925514221 1.0033354759216309 -1.9421355724334717 -0.16241048276424408  738318.7026682242
-0.741807758808136 -0.7562634944915771 0.8781559467315674 1.0431431531906128 -1.8955963850021362 -0.17283394932746887  738318.7026684089
-0.7326802015304565 -0.7478556632995605 0.8771880865097046 1.0330532789230347 -1.8375211954116821 -0.0810929536819458  738318.7026686744
-0.7312572002410889 -0.7483789324760437 0.8770259618759155 1.0774726867675781 -1.737311840057373 -0.08904455602169037  738318.7026688014
-0.7298030853271484 -0.7489206790924072 0.8768807649612427 1.1137923002243042 -1.6948291063308716 -0.09793829917907715  738318.7026689517
-0.7283190488815308 -0.7494816184043884 0.8767560720443726 1.1604759693145752 -1.6075916290283203 -0.10172142833471298  738318.7026690206
-0.7268062233924866 -0.7500625252723694 0.8766515851020813 1.204081654548645 -1.4812933206558228 -0.10333515703678131  738318.7026691476
-0.7252666354179382 -0.7506640553474426 0.8765621781349182 1.2652493715286255 -1.3949997425079346 -0.10834044963121414  738318.7026692631
-0.7237024903297424 -0.7512867450714111 0.876471221446991 1.3143972158432007 -1.2421666383743286 -0.11456139385700226  738318.7026692942
-0.7221159338951111 -0.7519314289093018 0.8763740062713623 1.3877357244491577 -1.0693426132202148 -0.11523998528718948  738318.7026693863
-0.7205093502998352 -0.7525995969772339 0.8762892484664917 1.4967296123504639 -0.8990882635116577 -0.11744917929172516  738318.7026695709
-0.7188857197761536 -0.7532930374145508 0.8762238025665283 1.6102018356323242 -0.6966888904571533 -0.12322970479726791  738318.702669744
-0.7104676961898804 -0.7447308301925659 0.87542325258255 1.6822819709777832 -0.573627233505249 -0.11310584843158722  738318.7026699173
-0.7068655490875244 -0.7459149956703186 0.8753438591957092 1.8723398447036743 -0.21361146867275238 -0.0917239710688591  738318.7026700214
-0.705055296421051 -0.7465534806251526 0.8753162622451782 1.9439818859100342 0.023347757756710052 -0.08311686664819717  738318.7026704148
-0.7032434344291687 -0.7472251057624817 0.8753017783164978 1.9873977899551392 0.18782877922058105 -0.07195594906806946  738318.7026704148
-0.701433539390564 -0.7479308843612671 0.8753024339675903 2.0341567993164062 0.34443962574005127 -0.06659336388111115  738318.7026705188
-0.6996282935142517 -0.7486715316772461 0.8753137588500977 2.0519349575042725 0.5800555348396301 -0.07119334489107132  738318.7026707149
-0.6978311538696289 -0.7494477033615112 0.8753407001495361 2.0644214153289795 0.744375467300415 -0.07739801704883575  738318.7026709112
-0.6861764192581177 -0.7427787184715271 0.8748683929443359 2.0113227367401123 1.072652816772461 -0.047937676310539246  738318.7026709805
-0.6806629300117493 -0.7451385259628296 0.8750385046005249 1.9360967874526978 1.3500471115112305 -0.05883484706282616  738318.7026713267
-0.6788673400878906 -0.7459935545921326 0.8751133680343628 1.9415409564971924 1.461234211921692 -0.07095281034708023  738318.7026713844
-0.6770961284637451 -0.7468821406364441 0.8751994371414185 1.9330509901046753 1.5757461786270142 -0.08786407858133316  738318.7026716858
-0.6753513216972351 -0.7478042840957642 0.8752968907356262 1.9472736120224 1.7587085962295532 -0.100937120616436  738318.7026717782
-0.6719522476196289 -0.7497502565383911 0.8755430579185486 2.042238712310791 2.1010260581970215 -0.10612732917070389  738318.7026719055
-0.6703031063079834 -0.7507744431495667 0.8756667971611023 2.0962305068969727 2.339838743209839 -0.10680262744426727  738318.7026719513
-0.6629846096038818 -0.7421917915344238 0.8751877546310425 2.111140489578247 2.414823055267334 -0.09797949343919754  738318.702672136
-0.6596054434776306 -0.7440226078033447 0.875361979007721 2.291414976119995 2.7530786991119385 -0.08330247551202774  738318.7026722976
-0.6579824686050415 -0.7449948787689209 0.8754451274871826 2.3671257495880127 2.8862905502319336 -0.07727222889661789  738318.7026724939
-0.6564085483551025 -0.7460075616836548 0.875541090965271 2.4818334579467773 2.9833943843841553 -0.0782952755689621  738318.7026726209
-0.65488600730896 -0.7470626831054688 0.8756570219993591 2.5512008666992188 3.1503241062164307 -0.06769996136426926  738318.7026729394
-0.6520048975944519 -0.7493059635162354 0.8759485483169556 2.643786907196045 3.3795833587646484 -0.04072602465748787  738318.702672986
-0.650517463684082 -0.7506163716316223 0.876118004322052 2.6669957637786865 3.5450191497802734 -0.02354469522833824  738318.7026730548
-0.6465246677398682 -0.7429171204566956 0.8757662177085876 2.5763609409332275 3.8237736225128174 -0.05266309529542923  738318.7026731818
-0.6441566944122314 -0.7451659440994263 0.876011073589325 2.5774154663085938 3.929715871810913 -0.024114716798067093  738318.7026735281
-0.6420537829399109 -0.7475901246070862 0.8762236833572388 2.568077325820923 3.9569921493530273 -0.008681299164891243  738318.7026736093
-0.6411035060882568 -0.7488678693771362 0.8763188123703003 2.5896620750427246 3.879683017730713 0.00718881469219923  738318.7026737821
-0.6402207016944885 -0.7501901388168335 0.8764184713363647 2.5786423683166504 3.8231709003448486 0.013846921734511852  738318.7026738931
-0.6394039392471313 -0.7515568137168884 0.8765180110931396 2.5705676078796387 3.7186996936798096 0.028645101934671402  738318.7026739513
-0.6379612684249878 -0.7544220089912415 0.8767004609107971 2.568053960800171 3.487612009048462 0.05005417391657829  738318.7026742164
-0.6367579102516174 -0.7574612498283386 0.8768246173858643 2.592829465866089 3.262427568435669 0.073775514960289  738318.7026743318
-0.6321375370025635 -0.7491488456726074 0.8764815330505371 2.5483884811401367 3.3372156620025635 0.07091226428747177  738318.7026746091
-0.6308389902114868 -0.7535781264305115 0.8765570521354675 2.5517020225524902 3.220949172973633 0.1163669154047966  738318.7026748052
-0.6305149793624878 -0.7551403045654297 0.8765403032302856 2.5601255893707275 3.1919591426849365 0.1272326409816742  738318.7026749204
-0.6302453875541687 -0.7567460536956787 0.8765150308609009 2.5777747631073 3.178755044937134 0.13781215250492096  738318.7026750474
-0.630030632019043 -0.758396327495575 0.8764967918395996 2.593116283416748 3.1906211376190186 0.1552763134241104  738318.7026751748
-0.6298708915710449 -0.7600915431976318 0.8764876127243042 2.598574638366699 3.1435651779174805 0.17960190773010254  738318.7026754634
-0.6252460479736328 -0.755108118057251 0.876091718673706 2.581174612045288 2.996175527572632 0.2807846963405609  738318.702675484
-0.6251400709152222 -0.7585058808326721 0.8759105801582336 2.576374053955078 2.7313973903656006 0.32001009583473206  738318.7026757264
-0.6253342032432556 -0.7639349102973938 0.8756216764450073 2.5585508346557617 2.236999034881592 0.3513335883617401  738318.7026758303
-0.6256663203239441 -0.7677721977233887 0.8753629922866821 2.4252729415893555 1.8711895942687988 0.3521631956100464  738318.7026759576
-0.6258838176727295 -0.7697545289993286 0.8752204775810242 2.3346729278564453 1.6563442945480347 0.36574405431747437  738318.7026760844
-0.6219968795776367 -0.7658812403678894 0.8745713233947754 2.2280194759368896 1.339750051498413 0.36646419763565063  738318.7026761996
-0.6224620938301086 -0.7699316740036011 0.8740583658218384 1.9325109720230103 0.9584190249443054 0.3547799289226532  738318.7026763266
-0.6229968667030334 -0.7741168141365051 0.8734179139137268 1.639042854309082 0.5891404151916504 0.3218280076980591  738318.7026766271
-0.6232829093933105 -0.7762540578842163 0.8730785250663757 1.5085070133209229 0.4084526300430298 0.3216456174850464  738318.702676754
-0.623577356338501 -0.7784183025360107 0.8727393746376038 1.4403197765350342 0.23505493998527527 0.31109726428985596  738318.7026768922
-0.623877227306366 -0.7806078195571899 0.8724001049995422 1.4175398349761963 0.10321663320064545 0.29157695174217224  738318.7026770076
-0.6244831681251526 -0.7850595712661743 0.8717058897018433 1.3452481031417847 -0.0978505089879036 0.27145540714263916  738318.7026771004
-0.6247854828834534 -0.7873202562332153 0.8713297247886658 1.2879225015640259 -0.2075910121202469 0.2487901896238327  738318.7026772273
-0.619937539100647 -0.7823941707611084 0.8701190948486328 1.2086061239242554 -0.49612879753112793 0.2937256991863251  738318.7026774952
-0.620104968547821 -0.7845582365989685 0.869678258895874 1.164093017578125 -0.613048791885376 0.285154789686203  738318.7026775414
-0.620262622833252 -0.7867429256439209 0.8692546486854553 1.122275948524475 -0.7271853685379028 0.26973289251327515  738318.7026777953
-0.6204086542129517 -0.7889471650123596 0.868833601474762 1.1079528331756592 -0.8427348136901855 0.26041433215141296  738318.7026779223
-0.6205539703369141 -0.7913933992385864 0.8683474659919739 1.1012755632400513 -0.9231008887290955 0.25039228796958923  738318.7026782224
-0.6206703782081604 -0.7936367988586426 0.8678915500640869 1.0303376913070679 -1.0106019973754883 0.2367679327726364  738318.7026782917
-0.6207701563835144 -0.7958983778953552 0.8674352169036865 0.972486138343811 -1.0972999334335327 0.22471880912780762  738318.7026785585
-0.6161855459213257 -0.7911391854286194 0.8665223717689514 0.8897339701652527 -1.2164770364761353 0.25814494490623474  738318.7026787433
-0.6160402297973633 -0.7954830527305603 0.8655781149864197 0.7379403710365295 -1.3031243085861206 0.2512640357017517  738318.7026789857
-0.6159352660179138 -0.7976752519607544 0.8650917410850525 0.6652089953422546 -1.3818787336349487 0.2329854816198349  738318.702679078
-0.6156556606292725 -0.8020941615104675 0.864096999168396 0.553372323513031 -1.386136770248413 0.20567922294139862  738318.7026793319
-0.6152801513671875 -0.8065524101257324 0.8630626797676086 0.48664310574531555 -1.5271892547607422 0.16279344260692596  738318.7026794358
-0.6150552034378052 -0.8087943196296692 0.8625237345695496 0.42053699493408203 -1.5104007720947266 0.14048181474208832  738318.7026795282
-0.6148044466972351 -0.811043918132782 0.8619747161865234 0.3660140931606293 -1.5578773021697998 0.12588512897491455  738318.7026797893
-0.6101369261741638 -0.8044565320014954 0.8613449335098267 0.4332770109176636 -1.6887236833572388 0.15469561517238617  738318.7026798816
-0.6093115210533142 -0.8087644577026367 0.8603664636611938 0.275171160697937 -1.761095404624939 0.1263219565153122  738318.7026802395
-0.6088538765907288 -0.810927152633667 0.8598940372467041 0.21051514148712158 -1.8166275024414062 0.10855107009410858  738318.7026802741
-0.6083657741546631 -0.8130939602851868 0.8594151735305786 0.12857413291931152 -1.8595391511917114 0.08521561324596405  738318.702680378
-0.6072943806648254 -0.8174346089363098 0.8584614992141724 -0.049801699817180634 -1.9139559268951416 0.03908726945519447  738318.702680655
-0.6060907244682312 -0.8217747211456299 0.8575747013092041 -0.14403489232063293 -1.8636670112609863 0.0017958887619897723  738318.7026808282
-0.6054390668869019 -0.8239418268203735 0.8571638464927673 -0.13874204456806183 -1.8147386312484741 -0.014886952005326748  738318.7026810129
-0.6033018231391907 -0.8304296135902405 0.8559351563453674 -0.04361102730035782 -1.497112512588501 -0.017284469678997993  738318.7026813708
-0.5959451198577881 -0.8235758543014526 0.8549764156341553 0.09115179628133774 -1.4854265451431274 0.014580407179892063  738318.7026814169
-0.5949591398239136 -0.8255703449249268 0.8545239567756653 0.11083389073610306 -1.4386614561080933 0.012893406674265862  738318.7026815554
-0.5929116010665894 -0.8295649290084839 0.85367351770401 0.1074456200003624 -1.2752678394317627 0.003349925857037306  738318.7026816247
-0.591852068901062 -0.831565260887146 0.8532875180244446 0.09088331460952759 -1.2249641418457031 0.005396726541221142  738318.7026818786
-0.5907708406448364 -0.8335673213005066 0.8529171347618103 0.07950321584939957 -1.166955590248108 0.009468029253184795  738318.7026818981
-0.5856513381004333 -0.8279229998588562 0.8520433902740479 0.06974596530199051 -1.066728949546814 0.026586325839161873  738318.7026821956
-0.5844597220420837 -0.8298195004463196 0.8516837358474731 0.052313998341560364 -0.9935129880905151 0.024921463802456856  738318.7026823111
-0.5832502841949463 -0.8317170739173889 0.8513342142105103 0.029701516032218933 -0.9681803584098816 0.03059997968375683  738318.7026824957
-0.5807814598083496 -0.8355139493942261 0.8506343364715576 -0.01100870780646801 -0.8618870377540588 0.04631008580327034  738318.7026827154
-0.5795233845710754 -0.8374126553535461 0.8502830266952515 -0.01058640331029892 -0.7828187942504883 0.059298090636730194  738318.7026828192
-0.5782511830329895 -0.8393111228942871 0.8499387502670288 0.035119280219078064 -0.7030192613601685 0.08802104741334915  738318.7026830155
-0.5756698846817017 -0.8431092500686646 0.8492657542228699 0.13281427323818207 -0.485285222530365 0.13495494425296783  738318.7026832345
-0.569599449634552 -0.8367510437965393 0.8487825989723206 0.3060552477836609 -0.24994966387748718 0.19777506589889526  738318.7026832592
-0.5667451620101929 -0.8401877880096436 0.8483180999755859 0.4982072114944458 -0.033156394958496094 0.26468873023986816  738318.7026837443
-0.5653148293495178 -0.8419172167778015 0.84810870885849 0.5420005321502686 0.10517548024654388 0.2998025417327881  738318.7026837671
-0.5637422204017639 -0.8438300490379333 0.8478941917419434 0.6109180450439453 0.18636412918567657 0.34835919737815857  738318.7026840328
-0.5623152256011963 -0.8455796837806702 0.8477275371551514 0.6276823282241821 0.2558964788913727 0.3853660225868225  738318.7026841365
-0.5608920454978943 -0.8473402261734009 0.847588300704956 0.6209784746170044 0.3679478168487549 0.42177051305770874  738318.702684171
-0.5594742894172668 -0.8491116762161255 0.8474649786949158 0.6068248748779297 0.45572546124458313 0.4652290344238281  738318.7026844533
-0.5580635666847229 -0.8508937954902649 0.8473531603813171 0.6156852841377258 0.4880746304988861 0.5025966763496399  738318.702684673
-0.5566610097885132 -0.8526867032051086 0.8472614884376526 0.5855474472045898 0.5664268732070923 0.5395082235336304  738318.7026847074
-0.550966739654541 -0.845992922782898 0.8471213579177856 0.5721692442893982 0.46437039971351624 0.6061778664588928  738318.7026847997
-0.5479350686073303 -0.849343478679657 0.8470500111579895 0.5268572568893433 0.6409932374954224 0.6742331981658936  738318.7026850883
-0.5449464917182922 -0.8527328372001648 0.8471394181251526 0.5609272718429565 0.9091509580612183 0.7461052536964417  738318.7026852268
-0.5420147776603699 -0.8561620116233826 0.84730064868927 0.6302030682563782 1.1434433460235596 0.8250290155410767  738318.7026854004
-0.5405749082565308 -0.8578925132751465 0.8473735451698303 0.6972723603248596 1.2634172439575195 0.8738501667976379  738318.7026854692
-0.5391553640365601 -0.8596346378326416 0.8474438786506653 0.7359465956687927 1.4193768501281738 0.9196100234985352  738318.7026856655
-0.534339189529419 -0.854220986366272 0.8473636507987976 0.7830646634101868 1.6811614036560059 0.9520808458328247  738318.7026858155
-0.5316128134727478 -0.857473611831665 0.8474796414375305 0.804599940776825 1.810288429260254 1.0565763711929321  738318.7026860464
-0.5302945971488953 -0.8591213226318359 0.8475362658500671 0.7756190299987793 1.8330929279327393 1.1164907217025757  738318.7026861622
-0.5290071964263916 -0.8607831001281738 0.8475890159606934 0.7228695750236511 1.8943076133728027 1.1657137870788574  738318.7026862657
-0.5265260934829712 -0.8641461730003357 0.8476422429084778 0.6964739561080933 1.9553124904632568 1.2614115476608276  738318.702686393
-0.5253334641456604 -0.8658468723297119 0.8476409912109375 0.6867924332618713 1.987087607383728 1.3069539070129395  738318.702686612
-0.5241732597351074 -0.8675597906112671 0.8476099967956543 0.628513514995575 2.0417232513427734 1.3479204177856445  738318.702686739
-0.5230463743209839 -0.8692845106124878 0.8475544452667236 0.6018500924110413 2.048535108566284 1.3903193473815918  738318.7026867621
-0.5208386182785034 -0.8613163828849792 0.8473226428031921 0.5274558067321777 2.1122167110443115 1.3941303491592407  738318.7026869582
-0.5197728276252747 -0.8628808259963989 0.8472399711608887 0.5029492974281311 2.1406524181365967 1.4376870393753052  738318.7026871892
-0.5187431573867798 -0.864454984664917 0.8471554517745972 0.45681867003440857 2.1379504203796387 1.4766515493392944  738318.7026873623
-0.5167925357818604 -0.867630124092102 0.8469812870025635 0.3972724378108978 2.0427746772766113 1.5586100816726685  738318.7026874316
-0.5158701539039612 -0.8692298531532288 0.8468839526176453 0.3872590661048889 2.0048909187316895 1.6060669422149658  738318.7026876509
-0.5149821639060974 -0.8708372712135315 0.8467845916748047 0.3964022397994995 1.969480276107788 1.6406235694885254  738318.7026878591
-0.5141276121139526 -0.8724523186683655 0.8466727137565613 0.39639347791671753 1.9243154525756836 1.6754778623580933  738318.702687963
-0.5125162601470947 -0.8757054209709167 0.8464092016220093 0.4216451048851013 1.970298171043396 1.7476680278778076  738318.7026880091
-0.5097945928573608 -0.8685956001281738 0.8461060523986816 0.37538227438926697 1.9388344287872314 1.801163911819458  738318.7026882169
-0.5082900524139404 -0.8715624213218689 0.8457826972007751 0.3934140205383301 1.943656325340271 1.8701778650283813  738318.702688471
-0.5069142580032349 -0.8745589256286621 0.845344603061676 0.3847232162952423 1.9658986330032349 1.9492741823196411  738318.7026886556
-0.5062750577926636 -0.8760685920715332 0.8450838327407837 0.3708212673664093 1.923472285270691 1.9769682884216309  738318.7026887711
-0.5056676268577576 -0.8775855898857117 0.8447836637496948 0.35523760318756104 1.9020099639892578 2.0040862560272217  738318.7026888753
-0.5050920248031616 -0.879109799861908 0.8444621562957764 0.283440500497818 1.9416899681091309 2.03865122795105  738318.7026889212
-0.5035592913627625 -0.8837182521820068 0.8435194492340088 0.09497251361608505 1.6581228971481323 2.1259098052978516  738318.702689083
-0.5024030804634094 -0.8756901025772095 0.843427300453186 0.005675830412656069 1.5875812768936157 2.1592838764190674  738318.7026891866
-0.5019438862800598 -0.8772084712982178 0.8430525064468384 -0.0776834636926651 1.4646543264389038 2.186668634414673  738318.702689579
-0.5015533566474915 -0.8785892724990845 0.8426893353462219 -0.12262748926877975 1.3511515855789185 2.2090420722961426  738318.7026897868
-0.5011864304542542 -0.8799692988395691 0.8423020839691162 -0.15725913643836975 1.2555347681045532 2.222935676574707  738318.702689856
-0.5008419156074524 -0.8813478350639343 0.8419145345687866 -0.16279588639736176 1.1523852348327637 2.2552638053894043  738318.7026900988
-0.500518262386322 -0.882724404335022 0.8415336608886719 -0.15797856450080872 1.0351885557174683 2.2638943195343018  738318.7026902947
-0.4999256134033203 -0.8854716420173645 0.8407379388809204 -0.1317187249660492 0.9503189325332642 2.298553705215454  738318.7026904217
-0.4996550679206848 -0.8868424892425537 0.8403422236442566 -0.12128745019435883 0.9151822328567505 2.324782133102417  738318.7026905371
-0.4984281659126282 -0.8805867433547974 0.8403601050376892 -0.08722992241382599 0.892475426197052 2.325392246246338  738318.7026906068
-0.49820223450660706 -0.8818149566650391 0.8400283455848694 -0.09058065712451935 0.812695324420929 2.361570119857788  738318.7026911031
-0.49799108505249023 -0.8830422163009644 0.8397058844566345 -0.15328486263751984 0.7088053822517395 2.372354745864868  738318.70269113
-0.49760645627975464 -0.885491132736206 0.8390443325042725 -0.24519844353199005 0.5461984872817993 2.392096519470215  738318.7026912685
-0.4972628653049469 -0.8879262804985046 0.8384297490119934 -0.3383486270904541 0.22605648636817932 2.417297124862671  738318.702691384
-0.4971008896827698 -0.8891363739967346 0.8381360769271851 -0.3808584213256836 0.07608121633529663 2.4248249530792236  738318.7026915802
-0.4969417452812195 -0.8903403878211975 0.8378413319587708 -0.4441458284854889 -0.011425619944930077 2.452418327331543  738318.7026916494
-0.4958541989326477 -0.8838863372802734 0.8383108377456665 -0.39838075637817383 -0.12108758836984634 2.5052108764648438  738318.7026920649
-0.49551668763160706 -0.8860448598861694 0.8377847671508789 -0.3720022141933441 -0.2641598582267761 2.543804883956909  738318.7026920996
-0.495342880487442 -0.8871136903762817 0.8375283479690552 -0.3685781955718994 -0.23983901739120483 2.5687003135681152  738318.7026923652
-0.4949831962585449 -0.8892318606376648 0.8370652794837952 -0.29986679553985596 -0.23724327981472015 2.606340169906616  738318.702692518
-0.4947975277900696 -0.8902822136878967 0.8368561863899231 -0.26517921686172485 -0.17160572111606598 2.6303603649139404  738318.7026927262
-0.494608610868454 -0.8913275599479675 0.8366416692733765 -0.22322849929332733 -0.14771951735019684 2.650134325027466  738318.7026928186
-0.4929945766925812 -0.8858756422996521 0.8370615839958191 -0.18669454753398895 -0.14818604290485382 2.682706594467163  738318.7026930259
-0.4925510585308075 -0.8877101540565491 0.836715817451477 -0.33523285388946533 -0.1979110687971115 2.699458360671997  738318.7026932107
-0.4920959174633026 -0.8895238041877747 0.8364374041557312 -0.4993712604045868 -0.40772658586502075 2.6653525829315186  738318.702693326
-0.49186044931411743 -0.8904191851615906 0.8363102674484253 -0.6189655065536499 -0.5312680006027222 2.661534070968628  738318.7026934876
-0.4916173219680786 -0.8913045525550842 0.8361905217170715 -0.7079806327819824 -0.6902591586112976 2.650313138961792  738318.7026935588
-0.49136418104171753 -0.8921779990196228 0.8360775113105774 -0.8010877966880798 -0.7855973839759827 2.6201915740966797  738318.7026936396
-0.4910988509654999 -0.8930377960205078 0.8359754085540771 -0.8619509339332581 -0.8708791732788086 2.6023662090301514  738318.7026938935
-0.4908198118209839 -0.8938825130462646 0.8358852863311768 -0.9221220016479492 -0.9455491304397583 2.5912253856658936  738318.7026939517
-0.4905257821083069 -0.8947111368179321 0.835804283618927 -0.9528212547302246 -1.009865641593933 2.5717999935150146  738318.7026939974
-0.4902156889438629 -0.8955228924751282 0.8357264995574951 -0.9789202809333801 -1.0248181819915771 2.5509090423583984  738318.702694136
-0.4884568154811859 -0.8878713250160217 0.8366726636886597 -0.9561529159545898 -0.9965282678604126 2.5518360137939453  738318.702694159
-0.4876997768878937 -0.8891610503196716 0.8364362716674805 -0.9856753349304199 -0.9173736572265625 2.5238912105560303  738318.7026944595
-0.4872974157333374 -0.8897799253463745 0.8363233804702759 -0.9654126167297363 -0.9114720225334167 2.516343593597412  738318.7026945284
-0.4864482581615448 -0.8909655213356018 0.8360993266105652 -0.9788814187049866 -0.8674613237380981 2.4988133907318115  738318.702694624
-0.48600247502326965 -0.8915325403213501 0.8359657526016235 -0.9768763184547424 -0.8573984503746033 2.474745273590088  738318.7026948319
-0.48554277420043945 -0.8920823335647583 0.8358239531517029 -0.9901173114776611 -0.8180736899375916 2.46628999710083  738318.7026950167
-0.4850695729255676 -0.8926149010658264 0.8356726765632629 -0.9919304847717285 -0.8423094749450684 2.456948757171631  738318.7026950627
-0.48256367444992065 -0.8855225443840027 0.8362012505531311 -1.019324779510498 -0.9487356543540955 2.4396770000457764  738318.7026951781
-0.48195207118988037 -0.8859441876411438 0.836024820804596 -1.0761390924453735 -0.9414504766464233 2.4236958026885986  738318.7026955244
-0.48079293966293335 -0.8866531252861023 0.8356618285179138 -1.1857129335403442 -0.969376802444458 2.3851168155670166  738318.702695559
-0.4801903963088989 -0.8869777917861938 0.8354592323303223 -1.1613062620162964 -0.9511675238609314 2.3616816997528076  738318.7026957553
-0.4782938063144684 -0.8878318667411804 0.8347088694572449 -1.0682631731033325 -0.867451548576355 2.2996785640716553  738318.7026958707
-0.477633535861969 -0.8880782723426819 0.8344123959541321 -1.0131984949111938 -0.7546931505203247 2.272667646408081  738318.7026960672
-0.4744195342063904 -0.8810094594955444 0.8341119885444641 -0.9066454768180847 -0.7275596857070923 2.269961357116699  738318.7026961823
-0.47291451692581177 -0.8811507821083069 0.8334056735038757 -0.9565428495407104 -0.5924320220947266 2.2202091217041016  738318.7026965175
-0.4713691771030426 -0.8812280893325806 0.8325890302658081 -1.0011088848114014 -0.5575186610221863 2.2053449153900146  738318.7026965899
-0.4705830514431 -0.8812412619590759 0.8321599364280701 -1.0442744493484497 -0.48393964767456055 2.185457706451416  738318.7026966591
-0.46898746490478516 -0.8812145590782166 0.8312592506408691 -1.0760817527770996 -0.39081811904907227 2.169590473175049  738318.7026967396
-0.4681797921657562 -0.8811737895011902 0.8308020234107971 -1.0607706308364868 -0.3283267617225647 2.152270793914795  738318.7026968899
-0.4673667550086975 -0.8811149597167969 0.8303216099739075 -1.054566740989685 -0.25684288144111633 2.123828887939453  738318.7026970977
-0.4637453258037567 -0.8734946250915527 0.8291686773300171 -0.9942891597747803 -0.17673999071121216 2.0856473445892334  738318.7026971435
-0.4619891941547394 -0.8730063438415527 0.8280360698699951 -0.9695285558700562 -0.030556613579392433 2.0308499336242676  738318.7026972936
-0.4602310359477997 -0.8724523782730103 0.8268259763717651 -0.9564506411552429 0.030290763825178146 1.9764517545700073  738318.7026973978
-0.45935291051864624 -0.8721510767936707 0.8261988759040833 -0.9649818539619446 0.021668920293450356 1.9438458681106567  738318.7026975018
-0.4584757685661316 -0.8718336820602417 0.8255535364151001 -0.9682301878929138 0.024154985323548317 1.9216601848602295  738318.7026975938
-0.45759955048561096 -0.8715001344680786 0.8248856663703918 -0.9399715662002563 0.05565154179930687 1.9084876775741577  738318.702697663
-0.453545480966568 -0.8641408681869507 0.8230364918708801 -0.8873400092124939 0.07880003750324249 1.8434404134750366  738318.7026977323
-0.4507042467594147 -0.8625706434249878 0.8211045861244202 -0.8023003339767456 0.4231487512588501 1.7900190353393555  738318.7026979631
-0.44976791739463806 -0.8620190620422363 0.8204686641693115 -0.7659016251564026 0.5019944310188293 1.7723336219787598  738318.7026980785
-0.4488399028778076 -0.8614543080329895 0.8198326826095581 -0.7243244051933289 0.6221954822540283 1.7384611368179321  738318.702698194
-0.4479219913482666 -0.8608769774436951 0.819205105304718 -0.711444616317749 0.7664664387702942 1.7153334617614746  738318.7026983674
-0.4470165967941284 -0.8602875471115112 0.8185944557189941 -0.6932858824729919 0.7728720903396606 1.6820911169052124  738318.702698425
-0.4442801773548126 -0.8532878160476685 0.8164361119270325 -0.6965479254722595 0.9913297891616821 1.6155569553375244  738318.7026985864
-0.4434208869934082 -0.8525629043579102 0.8158521056175232 -0.6824957728385925 1.037025809288025 1.5948302745819092  738318.702698875
-0.4425797164440155 -0.8518264293670654 0.8152906894683838 -0.6836333274841309 1.0851701498031616 1.5633792877197266  738318.7026989558
-0.4409549832344055 -0.8503194451332092 0.8142309784889221 -0.6318209767341614 1.2188804149627686 1.4892598390579224  738318.7026990135
-0.43941301107406616 -0.8487697243690491 0.8132227659225464 -0.5837870240211487 1.2612793445587158 1.4066669940948486  738318.7026991755
-0.4386748671531677 -0.8479798436164856 0.812741756439209 -0.5572487115859985 1.291500210762024 1.363223671913147  738318.7026993599
-0.4379595220088959 -0.8471804261207581 0.8122918605804443 -0.5230437517166138 1.286133050918579 1.3259938955307007  738318.702699556
-0.43653160333633423 -0.8454732894897461 0.8114195466041565 -0.4548459053039551 1.3330655097961426 1.2527695894241333  738318.7026996484
-0.4358876347541809 -0.8446480631828308 0.8110415935516357 -0.4330240786075592 1.3362441062927246 1.2171199321746826  738318.7026997176
-0.43408483266830444 -0.8382431268692017 0.8093335628509521 -0.4002076983451843 1.3759596347808838 1.1910452842712402  738318.7026999024
-0.4318286180496216 -0.8345080018043518 0.8081291913986206 -0.30303630232810974 1.5783133506774902 1.0308672189712524  738318.7027001678
-0.4313313961029053 -0.833560049533844 0.8079123497009277 -0.23798909783363342 1.6575286388397217 0.9936642050743103  738318.7027004444
-0.43042513728141785 -0.8316522240638733 0.807609498500824 -0.12648683786392212 1.6644723415374756 0.9138537645339966  738318.7027006063
-0.4300166368484497 -0.8306943774223328 0.8075088858604431 -0.07662460952997208 1.669018268585205 0.8602352142333984  738318.7027007103
-0.429637610912323 -0.8297351598739624 0.8074391484260559 -0.018368571996688843 1.6502710580825806 0.8180708289146423  738318.7027008485
-0.42682135105133057 -0.8216351270675659 0.8054649233818054 0.13604198396205902 1.3660202026367188 0.7160080671310425  738318.7027011948
-0.4265044033527374 -0.8206036686897278 0.8053738474845886 0.1552761048078537 1.3198432922363281 0.6766639351844788  738318.702701322
-0.4262104630470276 -0.8195749521255493 0.805284857749939 0.16170594096183777 1.2439355850219727 0.6325414180755615  738318.7027014256
-0.4259384870529175 -0.8185492157936096 0.8051979541778564 0.168059840798378 1.2428020238876343 0.585482120513916  738318.7027015525
-0.42568767070770264 -0.8175264596939087 0.8051063418388367 0.1419953554868698 1.2384477853775024 0.5387474894523621  738318.7027017955
-0.4254581034183502 -0.816506564617157 0.805016279220581 0.1118946224451065 1.2288881540298462 0.4960660934448242  738318.7027019915
-0.42524993419647217 -0.8154890537261963 0.8049390316009521 0.07359764724969864 1.230664849281311 0.4448606073856354  738318.7027020612
-0.42393359541893005 -0.8096550703048706 0.8033458590507507 0.08076061308383942 1.2764217853546143 0.32729482650756836  738318.7027024649
-0.42366424202919006 -0.8076055645942688 0.8031322360038757 -0.00803283043205738 1.2272323369979858 0.22753813862800598  738318.7027025687
-0.42356157302856445 -0.8065817356109619 0.8030375838279724 -0.05721137672662735 1.1864372491836548 0.1720709353685379  738318.702702661
-0.42347994446754456 -0.805557370185852 0.8029611110687256 -0.08825558423995972 1.1274131536483765 0.12417935580015182  738318.702702834
-0.42341873049736023 -0.8045317530632019 0.8029147982597351 -0.14420510828495026 1.0593047142028809 0.06612588465213776  738318.7027029494
-0.42337676882743835 -0.8035040497779846 0.802899181842804 -0.17495141923427582 0.9583990573883057 0.011793447658419609  738318.7027030999
-0.42335250973701477 -0.8024735450744629 0.8029096722602844 -0.19869878888130188 0.8300526738166809 -0.050055861473083496  738318.7027033997
-0.4233439564704895 -0.8014397025108337 0.8029507398605347 -0.2270110696554184 0.7156210541725159 -0.10356337577104568  738318.7027035843
-0.4234638512134552 -0.7957753539085388 0.8015473484992981 -0.1988016813993454 0.7980581521987915 -0.20362864434719086  738318.7027036074
-0.42379507422447205 -0.7924952507019043 0.8017173409461975 -0.25618213415145874 0.5210023522377014 -0.3597205579280853  738318.7027038614
-0.4239270091056824 -0.7913933396339417 0.8018019199371338 -0.3119845688343048 0.43152639269828796 -0.4110259413719177  738318.7027040345
-0.42406708002090454 -0.7902864813804626 0.80189049243927 -0.3082195818424225 0.3575713038444519 -0.45823901891708374  738318.7027041157
-0.42421379685401917 -0.7891743183135986 0.8019663691520691 -0.2902306914329529 0.3080132007598877 -0.4979343116283417  738318.7027041384
-0.42436614632606506 -0.7880569696426392 0.8020418286323547 -0.219275563955307 0.26212000846862793 -0.5451720356941223  738318.702704231
-0.42468515038490295 -0.7858100533485413 0.8022290468215942 -0.08910505473613739 0.2724800407886505 -0.63709557056427  738318.7027044734
-0.4219686686992645 -0.7782933115959167 0.8009238839149475 0.09049899131059647 0.16093042492866516 -0.6883192658424377  738318.7027048887
-0.42206695675849915 -0.7771022319793701 0.8010132312774658 0.12029094994068146 0.14950166642665863 -0.7239561080932617  738318.7027049699
-0.4222709536552429 -0.7747260332107544 0.801193118095398 0.1617322862148285 -0.0008670382667332888 -0.8053945302963257  738318.7027050504
-0.42237475514411926 -0.7735419869422913 0.8013045191764832 0.13704583048820496 -0.0032080814708024263 -0.8541800379753113  738318.7027052733
-0.4224785566329956 -0.7723605036735535 0.8014379739761353 0.1271374374628067 -0.07320299744606018 -0.8895406723022461  738318.702705389
-0.4225919842720032 -0.771063506603241 0.8015854358673096 0.08963494747877121 -0.15237484872341156 -0.9401594996452332  738318.7027054926
-0.4226931929588318 -0.7698863744735718 0.8017022013664246 0.0606156662106514 -0.21820618212223053 -0.9887877702713013  738318.7027055965
-0.4204563498497009 -0.7640233039855957 0.800497829914093 0.11269672960042953 -0.26548853516578674 -1.0079470872879028  738318.7027057118
-0.4205075204372406 -0.7627984285354614 0.8005976676940918 0.06281173229217529 -0.30395248532295227 -1.0372010469436646  738318.7027060236
-0.42059358954429626 -0.7603525519371033 0.800907552242279 -0.013425976037979126 -0.4452439844608307 -1.1110819578170776  738318.7027062896
-0.4206264615058899 -0.7591298818588257 0.8010704517364502 -0.040792565792798996 -0.48041829466819763 -1.1391297578811646  738318.7027063124
-0.42067545652389526 -0.755457878112793 0.8013715744018555 -0.14789581298828125 -0.61883544921875 -1.2509931325912476  738318.7027066129
-0.42067232728004456 -0.7542306780815125 0.8014115691184998 -0.1683337390422821 -0.6394364237785339 -1.287998080253601  738318.7027067284
-0.42065849900245667 -0.7530010342597961 0.8014394640922546 -0.17365142703056335 -0.6877819299697876 -1.330527424812317  738318.7027069011
-0.41766369342803955 -0.7434777021408081 0.7999232411384583 -0.24985019862651825 -0.7428353428840637 -1.448383092880249  738318.7027069938
-0.41741666197776794 -0.7407856583595276 0.7997788190841675 -0.3100905120372772 -0.7370695471763611 -1.529540777206421  738318.7027073398
-0.4172744154930115 -0.7394328713417053 0.7996642589569092 -0.2879736125469208 -0.7321831583976746 -1.5683846473693848  738318.7027073561
-0.41711950302124023 -0.7380753755569458 0.7995474934577942 -0.3161916136741638 -0.7221148610115051 -1.5980709791183472  738318.70270746
-0.4169519245624542 -0.7367129921913147 0.7994354963302612 -0.3046506941318512 -0.7025391459465027 -1.6312925815582275  738318.7027074831
-0.4165792167186737 -0.7339733839035034 0.799254834651947 -0.2430797517299652 -0.6971997618675232 -1.6718147993087769  738318.7027076909
-0.4163740575313568 -0.7325968742370605 0.7991981506347656 -0.2457517683506012 -0.6418017148971558 -1.6804120540618896  738318.7027077721
-0.4137687683105469 -0.7217759490013123 0.7975811958312988 -0.2031307965517044 -0.46883445978164673 -1.746330738067627  738318.7027080106
-0.41353103518486023 -0.7202533483505249 0.797478973865509 -0.18857331573963165 -0.3897375464439392 -1.7539101839065552  738318.7027082182
-0.4132859706878662 -0.718727707862854 0.7973574995994568 -0.15602482855319977 -0.3259897232055664 -1.7663930654525757  738318.7027082647
-0.412778377532959 -0.7156689763069153 0.7970985174179077 -0.06018082797527313 -0.16804292798042297 -1.7803205251693726  738318.7027084145
-0.4125182330608368 -0.7141374349594116 0.7969813942909241 -0.04542425274848938 -0.10628146678209305 -1.775101661682129  738318.7027086108
-0.41225573420524597 -0.7126051187515259 0.7968605160713196 -0.017412466928362846 -0.04861120134592056 -1.772769808769226  738318.7027086979
-0.4119918942451477 -0.7110722661018372 0.7967219948768616 0.007877441123127937 0.02611219510436058 -1.7788587808609009  738318.7027088249
-0.4090304970741272 -0.7011577486991882 0.7948954105377197 -0.08434180915355682 0.15257541835308075 -1.78864586353302  738318.7027089517
-0.40853139758110046 -0.697814404964447 0.7946105599403381 -0.12906788289546967 0.12771934270858765 -1.7760249376296997  738318.7027091477
-0.40804141759872437 -0.694462239742279 0.7943795323371887 -0.1920492798089981 0.08131647855043411 -1.7692335844039917  738318.7027093905
-0.4077989161014557 -0.6927815079689026 0.7943167090415955 -0.20894759893417358 0.02798711508512497 -1.7626560926437378  738318.7027094478
-0.40755724906921387 -0.6910971403121948 0.794295608997345 -0.1886795610189438 -0.006714575458317995 -1.7612899541854858  738318.7027095059
-0.4073156416416168 -0.6894093155860901 0.7942942976951599 -0.1666022539138794 -0.019626470282673836 -1.7599992752075195  738318.7027096907
