% x y z r p yw  738339.4165244417
0.17988789081573486 0.3962068557739258 0.4895395338535309 -0.29214245080947876 5.569377422332764 0.20311929285526276  738339.4168091065
0.17765982449054718 0.3954407274723053 0.48930203914642334 -0.48899605870246887 5.4420013427734375 0.22779667377471924  738339.4168092244
0.17533424496650696 0.39468124508857727 0.48909562826156616 -0.703606903553009 5.316542148590088 0.255146324634552  738339.4168094465
0.17291316390037537 0.3939320743083954 0.4889228940010071 -0.8978564739227295 5.184137344360352 0.28096112608909607  738339.4168094646
0.171781525015831 0.3870316445827484 0.4898987114429474 -0.902533769607544 5.204010009765625 0.26602107286453247  738339.4168095737
0.1691463738679886 0.38614553213119507 0.489785760641098 -1.0727592706680298 5.111746788024902 0.28884458541870117  738339.4168096886
0.16642241179943085 0.3852759897708893 0.4896749258041382 -1.2184395790100098 4.9717206954956055 0.3085075616836548  738339.4168097993
0.1636124551296234 0.38442549109458923 0.4895564615726471 -1.354279637336731 4.864693641662598 0.3201359510421753  738339.4168099113
0.16071675717830658 0.3835969567298889 0.48945215344429016 -1.4736744165420532 4.740662097930908 0.3413577973842621  738339.4168100301
0.15773652493953705 0.3827928602695465 0.48937198519706726 -1.5947511196136475 4.610826015472412 0.35511231422424316  738339.4168101496
0.15467415750026703 0.3820152282714844 0.48931360244750977 -1.7024204730987549 4.473575592041016 0.36232203245162964  738339.4168102627
0.15153150260448456 0.3812662959098816 0.4892835021018982 -1.8183672428131104 4.3258538246154785 0.37419062852859497  738339.4168103825
0.14831338822841644 0.38054704666137695 0.48925095796585083 -1.9194098711013794 4.170807361602783 0.3795055150985718  738339.4168105003
0.14502361416816711 0.37985870242118835 0.4891984462738037 -2.0200414657592773 3.9999630451202393 0.39128607511520386  738339.4168106283
0.14280711114406586 0.3744754195213318 0.49068698287010193 -2.0769741535186768 3.9388461112976074 0.3803417980670929  738339.4168107302
0.13934116065502167 0.3737601339817047 0.4906597137451172 -2.1590116024017334 3.740635633468628 0.381846159696579  738339.4168108423
0.1358075737953186 0.37308165431022644 0.49065616726875305 -2.241590738296509 3.5077366828918457 0.384547621011734  738339.4168109546
0.13220953941345215 0.3724418580532074 0.4906872808933258 -2.3260998725891113 3.2553765773773193 0.37922903895378113  738339.4168110682
0.12855181097984314 0.3718419671058655 0.490744948387146 -2.40932559967041 3.001163959503174 0.3783099949359894  738339.4168111898
0.12483955919742584 0.3712828755378723 0.49081531167030334 -2.4643032550811768 2.694887161254883 0.3542032539844513  738339.4168112973
0.12107809633016586 0.3707653880119324 0.49088814854621887 -2.550963878631592 2.3821425437927246 0.35202568769454956  738339.416811424
0.11727292090654373 0.37029051780700684 0.490959107875824 -2.6226184368133545 2.0149128437042236 0.32737454771995544  738339.4168115326
0.11343064904212952 0.36985862255096436 0.4910047650337219 -2.699018716812134 1.6746128797531128 0.30391553044319153  738339.4168117594
0.1095571294426918 0.36947089433670044 0.4910240173339844 -2.773698091506958 1.3231379985809326 0.28744497895240784  738339.4168117855
0.10732993483543396 0.365798681974411 0.492956280708313 -2.893117666244507 1.1990764141082764 0.24024423956871033  738339.4168118851
0.1033589243888855 0.3654690384864807 0.49300849437713623 -2.9444448947906494 0.8841773867607117 0.21815286576747894  738339.4168119911
0.0993698239326477 0.3651896119117737 0.49306607246398926 -2.9714300632476807 0.5862669348716736 0.20350195467472076  738339.4168121018
0.09536807984113693 0.3649597764015198 0.49310338497161865 -2.9731109142303467 0.29490455985069275 0.18740510940551758  738339.4168122341
0.09135857224464417 0.3647802770137787 0.49312958121299744 -2.9650800228118896 0.03996574506163597 0.1727409064769745  738339.416812345
0.08734602481126785 0.3646515905857086 0.493154376745224 -2.9350223541259766 -0.19740432500839233 0.16416439414024353  738339.4168124589
0.08333457261323929 0.3645724654197693 0.4931599199771881 -2.887951612472534 -0.4465385973453522 0.14410750567913055  738339.4168125776
0.07892797142267227 0.36454156041145325 0.4931362271308899 -2.8341381549835205 -0.7316698431968689 0.13219787180423737  738339.4168126971
0.07493199408054352 0.36456412076950073 0.4930967390537262 -2.763641357421875 -0.9978792667388916 0.11526644974946976  738339.4168128077
0.07095060497522354 0.36463454365730286 0.49305400252342224 -2.7116172313690186 -1.2879900932312012 0.08979818969964981  738339.416813087
0.06698872148990631 0.3647519648075104 0.49301236867904663 -2.663935899734497 -1.572529673576355 0.07024669647216797  738339.4168131101
0.06703881919384003 0.3625441789627075 0.4957955777645111 -2.7704076766967773 -1.7106459140777588 0.02848336473107338  738339.4168131484
0.06314889341592789 0.36276480555534363 0.4957820773124695 -2.72613525390625 -2.0026895999908447 0.0067046326585114  738339.4168132679
0.05928974971175194 0.3630313575267792 0.4957429766654968 -2.691502332687378 -2.2749271392822266 -0.010045795701444149  738339.4168133928
0.05546645075082779 0.3633435070514679 0.49568575620651245 -2.6430864334106445 -2.5422685146331787 -0.02329472452402115  738339.4168135036
0.05168430507183075 0.36370134353637695 0.49562710523605347 -2.5903899669647217 -2.7888994216918945 -0.04277922585606575  738339.4168136221
0.047948554158210754 0.36410465836524963 0.49558237195014954 -2.5294625759124756 -3.0250585079193115 -0.044255878776311874  738339.416813734
0.044263336807489395 0.36455240845680237 0.4955504238605499 -2.450355291366577 -3.262441396713257 -0.0511460080742836  738339.416813845
0.0406324565410614 0.36504313349723816 0.4955257475376129 -2.3731746673583984 -3.4634737968444824 -0.06112487241625786  738339.4168139687
0.0370597317814827 0.36557552218437195 0.4955088496208191 -2.274881362915039 -3.6741933822631836 -0.06849120557308197  738339.416814113
0.038808368146419525 0.3643154501914978 0.49840036034584045 -2.377556800842285 -3.6983482837677 -0.08157911151647568  738339.4168141938
0.035400208085775375 0.36496490240097046 0.49847161769866943 -2.2806451320648193 -3.8921895027160645 -0.08892253786325455  738339.4168143132
0.0320582315325737 0.365654855966568 0.49855807423591614 -2.1768078804016113 -4.055967807769775 -0.09106375277042389  738339.4168144395
0.028785506263375282 0.36638349294662476 0.4986587166786194 -2.074570655822754 -4.238580703735352 -0.09607430547475815  738339.41681455
0.025583941489458084 0.3671484887599945 0.49875882267951965 -1.9722263813018799 -4.376006603240967 -0.10534550994634628  738339.4168146605
0.02245495468378067 0.3679474890232086 0.4988410174846649 -1.8629069328308105 -4.525418281555176 -0.09912382811307907  738339.4168147768
0.0193999744951725 0.36877837777137756 0.4988933205604553 -1.7346571683883667 -4.682237148284912 -0.10345035046339035  738339.4168148898
0.016422025859355927 0.3696393072605133 0.49892139434814453 -1.6361879110336304 -4.82476282119751 -0.11109792441129684  738339.4168150086
0.013523248955607414 0.3705282509326935 0.4989205598831177 -1.524598479270935 -4.97777795791626 -0.11770101636648178  738339.4168153211
0.010704269632697105 0.37144288420677185 0.49886995553970337 -1.4326248168945312 -5.161489963531494 -0.13371114432811737  738339.4168153442
0.014588057063519955 0.37029293179512024 0.501983106136322 -1.530089020729065 -5.329531192779541 -0.1500907838344574  738339.416815379
0.012036674655973911 0.37128376960754395 0.5018962025642395 -1.445961356163025 -5.525661945343018 -0.16685691475868225  738339.4168154717
0.009577000513672829 0.37229955196380615 0.501793384552002 -1.3786643743515015 -5.706701755523682 -0.17171955108642578  738339.4168155915
0.007213699631392956 0.37333929538726807 0.5016887784004211 -1.295502781867981 -5.897035121917725 -0.1810014694929123  738339.4168157069
0.004950469359755516 0.3744018077850342 0.5015870928764343 -1.2186249494552612 -6.060061454772949 -0.18502277135849  738339.4168158144
0.0027912750374525785 0.3754858672618866 0.5014967322349548 -1.1268885135650635 -6.226607322692871 -0.19229702651500702  738339.4168159276
0.0007387145888060331 0.37658989429473877 0.5014148354530334 -1.0234434604644775 -6.306035041809082 -0.1974988579750061  738339.416816052
-0.0012067570351064205 0.3777119517326355 0.5013265609741211 -0.8961018919944763 -6.419601917266846 -0.21614988148212433  738339.4168161576
-0.0030465680174529552 0.378849595785141 0.5012044906616211 -0.7769400477409363 -6.538748741149902 -0.2226451188325882  738339.416816278
-0.0047805579379200935 0.38000059127807617 0.5010335445404053 -0.6558170914649963 -6.654892921447754 -0.24075011909008026  738339.4168163893
0.0009490121738053858 0.37921687960624695 0.5047330856323242 -0.7084617614746094 -6.8125529289245605 -0.2504134178161621  738339.4168165162
-0.000419279036577791 0.380423367023468 0.504579484462738 -0.6011890172958374 -6.907295227050781 -0.2544023394584656  738339.4168166284
-0.0016726511530578136 0.38164037466049194 0.5044000148773193 -0.5078851580619812 -6.998055934906006 -0.26736414432525635  738339.4168167448
-0.0028076637536287308 0.3828662633895874 0.5042097568511963 -0.4181424379348755 -7.067554473876953 -0.27368196845054626  738339.4168168596
-0.003821691032499075 0.384099543094635 0.5040187835693359 -0.3299241065979004 -7.106097221374512 -0.2739773988723755  738339.4168169745
-0.004712521098554134 0.3853387236595154 0.5038374066352844 -0.22897185385227203 -7.138031482696533 -0.28356122970581055  738339.4168170796
-0.005478713195770979 0.3865821063518524 0.5036722421646118 -0.14475952088832855 -7.139045238494873 -0.2819194197654724  738339.416817206
-0.006121393293142319 0.38782811164855957 0.5035122036933899 -0.03849245235323906 -7.114429473876953 -0.2861954867839813  738339.4168173257
-0.006643762346357107 0.38907504081726074 0.503333330154419 0.0613115020096302 -7.09133243560791 -0.2937000095844269  738339.4168175117
-0.007047609891742468 0.39032119512557983 0.5031245946884155 0.15269896388053894 -7.032338619232178 -0.2987856864929199  738339.4168175694
0.0006336944061331451 0.38872087001800537 0.5069401860237122 0.10073766112327576 -7.09063720703125 -0.30553215742111206  738339.416817662
0.0006479388102889061 0.38996896147727966 0.5067578554153442 0.18344393372535706 -7.013600826263428 -0.30722758173942566  738339.4168177751
0.0007799806771799922 0.3912140727043152 0.506546676158905 0.26827821135520935 -6.927971363067627 -0.303364634513855  738339.4168178892
0.0010289871133863926 0.39245477318763733 0.5063111782073975 0.35483336448669434 -6.8072686195373535 -0.3020458221435547  738339.4168180027
0.0013932919828221202 0.3936896324157715 0.5060520172119141 0.42551159858703613 -6.678766250610352 -0.29843923449516296  738339.4168181252
0.0018725031986832619 0.39491724967956543 0.5057839155197144 0.5088282823562622 -6.514525890350342 -0.2936171591281891  738339.4168182417
0.0025312858633697033 0.39625751972198486 0.5054959654808044 0.5859073400497437 -6.304845809936523 -0.2898445129394531  738339.416818357
0.0032484105322510004 0.39746522903442383 0.5052571296691895 0.6592522859573364 -6.151144027709961 -0.2895577549934387  738339.4168184728
0.004075607284903526 0.3986613154411316 0.5050475597381592 0.7336615920066833 -5.980859279632568 -0.2891455888748169  738339.4168185884
0.0050094048492610455 0.39984452724456787 0.50486159324646 0.7765186429023743 -5.777078151702881 -0.28126204013824463  738339.4168188202
0.00604639295488596 0.40101391077041626 0.5046985149383545 0.8074323534965515 -5.577585697174072 -0.2831774055957794  738339.4168188403
0.015616082586348057 0.39825376868247986 0.5090434551239014 0.7641251683235168 -5.622550010681152 -0.2953382134437561  738339.4168189362
0.01708695851266384 0.3993576169013977 0.509032130241394 0.7912610173225403 -5.382752418518066 -0.28478747606277466  738339.4168190524
0.018654437735676765 0.4004473090171814 0.5090444684028625 0.8206921815872192 -5.165979385375977 -0.2740090489387512  738339.4168191752
0.020314790308475494 0.40152230858802795 0.5090839266777039 0.8496084809303284 -4.9014811515808105 -0.2688574492931366  738339.4168192892
0.022063132375478745 0.40258222818374634 0.5091434717178345 0.8691939115524292 -4.614081382751465 -0.26293542981147766  738339.4168193965
0.023893877863883972 0.40362685918807983 0.5092138648033142 0.894026517868042 -4.2871599197387695 -0.25266653299331665  738339.4168195198
0.02580133266746998 0.40465593338012695 0.5092900991439819 0.9246949553489685 -3.938103199005127 -0.24400758743286133  738339.4168196314
0.027779471129179 0.40566903352737427 0.5093696117401123 0.96482253074646 -3.5569493770599365 -0.24026162922382355  738339.4168197497
0.02982202172279358 0.4066656231880188 0.5094525218009949 1.0087593793869019 -3.1541659832000732 -0.2378392070531845  738339.4168198799
0.03892280533909798 0.4036788046360016 0.5125829577445984 1.0457860231399536 -2.991868495941162 -0.25538143515586853  738339.4168199797
0.041276827454566956 0.4045736789703369 0.512731671333313 1.0819100141525269 -2.6104562282562256 -0.2541068196296692  738339.4168200952
0.04367871209979057 0.40545013546943665 0.5128785967826843 1.1264513731002808 -2.2401552200317383 -0.25233227014541626  738339.4168202082
0.04612193629145622 0.4063076078891754 0.5130206942558289 1.1473188400268555 -1.894025444984436 -0.23459075391292572  738339.4168203193
0.04860027879476547 0.407145619392395 0.5131548643112183 1.1704832315444946 -1.5552071332931519 -0.2335093468427658  738339.4168204371
0.051107488572597504 0.40796416997909546 0.5132644772529602 1.1766455173492432 -1.208248257637024 -0.22310885787010193  738339.4168205549
0.05363798514008522 0.40876299142837524 0.5133525729179382 1.1821686029434204 -0.8942645788192749 -0.2133783996105194  738339.4168206686
0.05618654564023018 0.40954142808914185 0.5134459733963013 1.16746187210083 -0.5797837376594543 -0.21262577176094055  738339.4168207801
0.058747705072164536 0.4102995693683624 0.5135457515716553 1.15217924118042 -0.24612219631671906 -0.20483006536960602  738339.4168209041
0.061315882951021194 0.41103801131248474 0.5136363506317139 1.1486926078796387 0.06249978765845299 -0.20057962834835052  738339.4168210187
0.06388566642999649 0.4117572605609894 0.5137017965316772 1.1372601985931396 0.3713230788707733 -0.2022639364004135  738339.4168211519
0.07124710083007812 0.40696391463279724 0.5156478881835938 1.216952919960022 0.503929615020752 -0.23717616498470306  738339.4168212542
0.0739627331495285 0.4075196385383606 0.5156925320625305 1.227887511253357 0.7904672622680664 -0.23616503179073334  738339.4168213654
0.07666739821434021 0.4080547094345093 0.5157260894775391 1.2396533489227295 1.0947623252868652 -0.23732797801494598  738339.4168214828
0.07935634255409241 0.40856918692588806 0.5157375931739807 1.2534852027893066 1.413864254951477 -0.22922492027282715  738339.4168216024
0.08202455937862396 0.40906304121017456 0.5157198905944824 1.292164921760559 1.6955617666244507 -0.22130827605724335  738339.4168217061
0.08466726541519165 0.4095360338687897 0.5156654119491577 1.3255201578140259 2.031888246536255 -0.22723914682865143  738339.416821826
0.08727958798408508 0.4099876880645752 0.5155699253082275 1.3468180894851685 2.371671676635742 -0.21771903336048126  738339.4168219414
0.08985578268766403 0.41041743755340576 0.5154378414154053 1.3834580183029175 2.6595683097839355 -0.20790286362171173  738339.4168220544
0.09239090979099274 0.4108249843120575 0.5152625441551208 1.4047214984893799 2.9842844009399414 -0.20970186591148376  738339.4168221895
0.09795532375574112 0.4061560332775116 0.5158988237380981 1.5209764242172241 3.2105634212493896 -0.2311718463897705  738339.4168222889
0.10048423707485199 0.40639355778694153 0.5156593322753906 1.5522772073745728 3.497591018676758 -0.22001230716705322  738339.4168224024
0.10295931249856949 0.406606525182724 0.5153607726097107 1.5592823028564453 3.79461932182312 -0.2198093831539154  738339.4168225145
0.10537584125995636 0.40679460763931274 0.5150038003921509 1.5753682851791382 4.073793888092041 -0.20231780409812927  738339.4168226374
0.10772835463285446 0.40695732831954956 0.514599084854126 1.5888453722000122 4.321853160858154 -0.18111003935337067  738339.4168227564
0.11001238971948624 0.4070943593978882 0.514147937297821 1.6082249879837036 4.576035022735596 -0.16701790690422058  738339.4168228699
0.11222183704376221 0.4072047472000122 0.5136753916740417 1.6464271545410156 4.812402248382568 -0.14232607185840607  738339.4168229803
0.11435031145811081 0.40728721022605896 0.5132068395614624 1.681030511856079 5.042490005493164 -0.12148766219615936  738339.4168231001
0.11639371514320374 0.4073410928249359 0.5127431154251099 1.7134402990341187 5.247220516204834 -0.09547267109155655  738339.4168233105
0.11834806948900223 0.40736567974090576 0.5122864842414856 1.782031536102295 5.442017078399658 -0.07684225589036942  738339.4168233654
0.12083180993795395 0.4017779529094696 0.5124028921127319 1.9744784832000732 5.557829856872559 -0.11504785716533661  738339.4168234522
0.12264399230480194 0.4015931189060211 0.5119300484657288 2.028498888015747 5.712852478027344 -0.08653626590967178  738339.4168235637
0.12452901154756546 0.4013513922691345 0.5113747119903564 2.1025145053863525 5.881707668304443 -0.06091546639800072  738339.41682368
0.1261426955461502 0.40109601616859436 0.5108258128166199 2.1575262546539307 6.0140886306762695 -0.03461068123579025  738339.4168237944
0.12765757739543915 0.4008052349090576 0.5102448463439941 2.2097651958465576 6.11892557144165 -0.0088569987565279  738339.4168239143
0.12906859815120697 0.40047696232795715 0.5096601247787476 2.2446537017822266 6.226004600524902 0.017952995374798775  738339.4168240239
0.13037259876728058 0.4001098871231079 0.5090839266777039 2.260040521621704 6.310001373291016 0.05237545073032379  738339.4168241326
0.13156747817993164 0.39970335364341736 0.5085203051567078 2.2723755836486816 6.364665508270264 0.07743556797504425  738339.4168242534
0.1326531171798706 0.39925745129585266 0.50795978307724 2.270838499069214 6.419961452484131 0.10942146927118301  738339.4168243777
0.13362866640090942 0.39877206087112427 0.5074015259742737 2.2512359619140625 6.441343784332275 0.14718787372112274  738339.4168245974
0.13449400663375854 0.39824748039245605 0.5068410634994507 2.2333590984344482 6.43855094909668 0.17555749416351318  738339.4168246213
0.13390441238880157 0.391620397567749 0.5064565539360046 2.3604462146759033 6.468035697937012 0.18077455461025238  738339.4168247252
0.13451437652111053 0.3908568024635315 0.5058619976043701 2.317765712738037 6.433831691741943 0.21197454631328583  738339.416824837
0.13501611351966858 0.3900533616542816 0.5052449107170105 2.2645649909973145 6.399500370025635 0.24503958225250244  738339.4168249577
0.1354081779718399 0.3892101049423218 0.5046235918998718 2.204887628555298 6.330723285675049 0.28437721729278564  738339.4168250754
0.13568910956382751 0.38832709193229675 0.5040196776390076 2.126858949661255 6.247820854187012 0.3073047995567322  738339.4168251767
0.13586102426052094 0.38740578293800354 0.5034262537956238 2.017395257949829 6.165637016296387 0.3402478098869324  738339.4168252948
0.13592663407325745 0.3864481747150421 0.5028315186500549 1.9172114133834839 6.03758430480957 0.3652094006538391  738339.4168254134
0.13588804006576538 0.3854561746120453 0.5022327899932861 1.7698159217834473 5.924695014953613 0.3814539909362793  738339.4168255244
0.13574627041816711 0.38443154096603394 0.5016402006149292 1.613914966583252 5.785630226135254 0.399069607257843  738339.4168256618
0.13325057923793793 0.37805378437042236 0.5009521245956421 1.5741277933120728 5.716070175170898 0.38244983553886414  738339.4168257612
0.1328372359275818 0.3768354654312134 0.5003678202629089 1.411605954170227 5.539107322692871 0.3894508183002472  738339.4168258766
0.1323261559009552 0.3755905032157898 0.4997968077659607 1.244333028793335 5.369539260864258 0.3952692747116089  738339.4168259889
0.13172085583209991 0.37432193756103516 0.49923384189605713 1.0677452087402344 5.183607578277588 0.4043223261833191  738339.4168261047
0.1310238242149353 0.3730325698852539 0.4986850917339325 0.9080799221992493 4.962678909301758 0.4044331908226013  738339.4168262223
0.13023759424686432 0.3717252314090729 0.4981629550457001 0.737223744392395 4.771728515625 0.4101128876209259  738339.416826338
0.1293662190437317 0.3704029321670532 0.4976620376110077 0.5773433446884155 4.552173137664795 0.4056030809879303  738339.4168264532
0.12841352820396423 0.36906862258911133 0.4971792697906494 0.40795934200286865 4.374526500701904 0.40116214752197266  738339.4168265746
0.12738345563411713 0.3677252531051636 0.4967082440853119 0.247666597366333 4.161384582519531 0.3940744698047638  738339.4168266822
0.12627939879894257 0.36637571454048157 0.496248722076416 0.08015681803226471 3.949932336807251 0.38824382424354553  738339.4168268912
0.12510313093662262 0.36502283811569214 0.49582844972610474 -0.08198950439691544 3.7309486865997314 0.38635894656181335  738339.4168269441
0.12059061229228973 0.35894113779067993 0.49564480781555176 -0.10489381849765778 3.713095188140869 0.35744962096214294  738339.4168270368
0.11914853751659393 0.35746288299560547 0.4953044354915619 -0.2535717487335205 3.4918339252471924 0.354918897151947  738339.4168271386
0.1176433116197586 0.35598742961883545 0.494986891746521 -0.3921659588813782 3.2787885665893555 0.3444925844669342  738339.4168272619
0.11607828736305237 0.35451740026474 0.4947006404399872 -0.5314351916313171 3.0321121215820312 0.3329141139984131  738339.416827378
0.11445777118206024 0.35305526852607727 0.49444130063056946 -0.6662241816520691 2.79374361038208 0.3143199384212494  738339.4168274931
0.11278583854436874 0.35160350799560547 0.49421218037605286 -0.8019887804985046 2.5572452545166016 0.3072757124900818  738339.4168276142
0.11106625199317932 0.3501646816730499 0.4940236210823059 -0.954330325126648 2.3071975708007812 0.29051652550697327  738339.4168277315
0.10930376499891281 0.34874123334884644 0.49386560916900635 -1.133109211921692 2.0327086448669434 0.2742699980735779  738339.4168278353
0.10750311613082886 0.3473360240459442 0.49373361468315125 -1.3162460327148438 1.7486592531204224 0.2636401057243347  738339.4168279784
0.1029476448893547 0.34198418259620667 0.49360033869743347 -1.3785617351531982 1.6596040725708008 0.22371429204940796  738339.4168280774
0.10096091032028198 0.34051835536956787 0.493492066860199 -1.5795166492462158 1.3538473844528198 0.2064988613128662  738339.4168281831
0.0989474281668663 0.3390788435935974 0.49342119693756104 -1.7535725831985474 1.0137426853179932 0.17729239165782928  738339.416828294
0.0969129204750061 0.3376691937446594 0.49339354038238525 -1.9423543214797974 0.720240592956543 0.15428426861763  738339.4168284235
0.09486301243305206 0.33629265427589417 0.4934086501598358 -2.1630284786224365 0.39865392446517944 0.11853446066379547  738339.4168285395
0.09280315041542053 0.3349534273147583 0.49347975850105286 -2.388089179992676 0.11131780594587326 0.09269215166568756  738339.4168286539
0.09073887765407562 0.33365562558174133 0.4936075508594513 -2.6155035495758057 -0.18894322216510773 0.06652728468179703  738339.4168287708
0.08867541700601578 0.33240222930908203 0.4937673807144165 -2.833580732345581 -0.4567379355430603 0.03747371584177017  738339.4168288759
0.08661762624979019 0.33119648694992065 0.493946373462677 -3.037625312805176 -0.6729670166969299 0.01614578254520893  738339.4168290012
0.08265477418899536 0.3274635374546051 0.49368205666542053 -3.2392358779907227 -0.6966248154640198 0.0004624603025149554  738339.4168291135
0.08051488548517227 0.3263287842273712 0.49387773871421814 -3.4051928520202637 -0.8757919669151306 -0.017857858911156654  738339.4168292232
0.0783890038728714 0.3252529501914978 0.4941059350967407 -3.557389259338379 -1.027891755104065 -0.029247885569930077  738339.4168293482
0.07628018409013748 0.32423919439315796 0.49437204003334045 -3.6955056190490723 -1.1580206155776978 -0.03180015832185745  738339.4168294594
0.0741906687617302 0.32328933477401733 0.4946640133857727 -3.8097026348114014 -1.3013428449630737 -0.04908287152647972  738339.4168295715
0.07212267816066742 0.3224049508571625 0.49497294425964355 -3.928015947341919 -1.444959282875061 -0.04474368318915367  738339.4168296894
0.07007858157157898 0.32158780097961426 0.49529457092285156 -4.03326940536499 -1.587581992149353 -0.05412774905562401  738339.4168298107
0.06806088984012604 0.32083985209465027 0.4956290125846863 -4.150320529937744 -1.722951889038086 -0.06591957807540894  738339.4168299293
0.0660720244050026 0.3201630115509033 0.495976060628891 -4.28671407699585 -1.8514611721038818 -0.07892759889364243  738339.4168300376
0.06411396712064743 0.3195587396621704 0.4963257908821106 -4.4149675369262695 -2.028517961502075 -0.10260666161775589  738339.416830157
0.062188807874917984 0.3190280795097351 0.4966624081134796 -4.580801963806152 -2.1893975734710693 -0.12211774289608002  738339.4168303125
0.05986127629876137 0.31648895144462585 0.49553075432777405 -4.790085792541504 -2.2467525005340576 -0.13489434123039246  738339.4168303836
0.05795813351869583 0.3160884976387024 0.4957476258277893 -4.963006496429443 -2.39635968208313 -0.1534680724143982  738339.4168304997
0.056092239916324615 0.3157661259174347 0.4959012269973755 -5.134912014007568 -2.497408628463745 -0.17330069839954376  738339.4168306111
0.05426645651459694 0.3155261278152466 0.4960084855556488 -5.277489185333252 -2.592133045196533 -0.1956174671649933  738339.4168307343
0.052483171224594116 0.31537261605262756 0.49608519673347473 -5.419615268707275 -2.6518945693969727 -0.2026880830526352  738339.4168308453
0.050744324922561646 0.3153092563152313 0.4961446523666382 -5.553082466125488 -2.668616771697998 -0.21456386148929596  738339.4168309597
0.04905087500810623 0.3153389096260071 0.49619245529174805 -5.655005931854248 -2.683178663253784 -0.21795134246349335  738339.4168310749
0.04740305244922638 0.3154635429382324 0.49622780084609985 -5.737139701843262 -2.6875858306884766 -0.2229776829481125  738339.4168311955
0.04580126330256462 0.3156851828098297 0.49625542759895325 -5.805600166320801 -2.6666669845581055 -0.23065400123596191  738339.4168314522
0.044245216995477676 0.31600475311279297 0.4962717294692993 -5.8525543212890625 -2.6694300174713135 -0.2343134731054306  738339.4168315214
0.04273385927081108 0.3164212703704834 0.496257483959198 -5.887783050537109 -2.684062957763672 -0.24606814980506897  738339.4168315445
0.04244240000844002 0.3158954679965973 0.49429818987846375 -6.022158622741699 -2.5712857246398926 -0.24942252039909363  738339.41683166
0.04099734500050545 0.3165287971496582 0.4941551685333252 -6.042065620422363 -2.605541229248047 -0.25351813435554504  738339.4168317734
0.039595846086740494 0.31726282835006714 0.49398499727249146 -6.057248115539551 -2.6321442127227783 -0.2714533507823944  738339.4168318808
0.03823797032237053 0.31809672713279724 0.49377715587615967 -6.07701301574707 -2.642817974090576 -0.2727660536766052  738339.4168320055
0.03692345321178436 0.31902948021888733 0.4935195744037628 -6.097161769866943 -2.704462766647339 -0.29105502367019653  738339.416832116
0.035653743892908096 0.3200633227825165 0.49323001503944397 -6.114919185638428 -2.7514965534210205 -0.30102577805519104  738339.4168322363
0.034431103616952896 0.32120147347450256 0.49293577671051025 -6.131312370300293 -2.7912380695343018 -0.3129258453845978  738339.4168323474
0.033256564289331436 0.3224447965621948 0.49264201521873474 -6.132402420043945 -2.8440053462982178 -0.3269115686416626  738339.4168324593
0.032130081206560135 0.3237915635108948 0.4923315644264221 -6.147752285003662 -2.8948891162872314 -0.34672486782073975  738339.416832761
0.03105216659605503 0.3252410590648651 0.49199676513671875 -6.156299114227295 -2.9288580417633057 -0.34546464681625366  738339.4168327841
0.030024146661162376 0.32679483294487 0.49164968729019165 -6.122055530548096 -2.9261605739593506 -0.3584464192390442  738339.4168328304
0.031735315918922424 0.32657721638679504 0.49027878046035767 -6.157196998596191 -2.8498125076293945 -0.3662247657775879  738339.4168329346
0.030833115801215172 0.32834193110466003 0.48994195461273193 -6.092828750610352 -2.8183960914611816 -0.36485710740089417  738339.4168330393
0.029981795698404312 0.3302152454853058 0.4896383285522461 -5.997970104217529 -2.745659828186035 -0.34573739767074585  738339.4168331638
0.029180113226175308 0.3321952223777771 0.4893631637096405 -5.871048927307129 -2.680975914001465 -0.3356987535953522  738339.4168332682
0.0284268818795681 0.33427995443344116 0.48911720514297485 -5.722282409667969 -2.585744857788086 -0.3219060003757477  738339.4168333834
0.027720680460333824 0.33646711707115173 0.4889017343521118 -5.552417755126953 -2.484280586242676 -0.3017902076244354  738339.4168335061
0.027059562504291534 0.33875352144241333 0.4887131452560425 -5.331936359405518 -2.3999648094177246 -0.2975488305091858  738339.416833624
0.026441849768161774 0.34113559126853943 0.48855060338974 -5.13413667678833 -2.3201372623443604 -0.27540233731269836  738339.4168337747
0.028919797390699387 0.34334394335746765 0.4876500070095062 -5.0585198402404785 -2.306769371032715 -0.30115386843681335  738339.4168338507
0.028445079922676086 0.34594613313674927 0.48748645186424255 -4.8421630859375 -2.2854316234588623 -0.29449108242988586  738339.4168339631
0.02801116742193699 0.3486352860927582 0.487348735332489 -4.652474403381348 -2.221865653991699 -0.2953758239746094  738339.4168340821
0.027616936713457108 0.35140708088874817 0.48722803592681885 -4.459934234619141 -2.181373119354248 -0.2963094413280487  738339.4168341883
0.027260947972536087 0.35425713658332825 0.48711058497428894 -4.265594005584717 -2.1504759788513184 -0.2962241768836975  738339.4168343166
0.026942476630210876 0.35718193650245667 0.48699378967285156 -4.060945510864258 -2.0911433696746826 -0.2978605329990387  738339.4168344358
0.02663477137684822 0.3604818880558014 0.486872136592865 -3.8246653079986572 -2.0303523540496826 -0.2956274449825287  738339.4168345404
0.026392972096800804 0.3635536730289459 0.48677486181259155 -3.5926501750946045 -1.9341766834259033 -0.28648650646209717  738339.4168346603
0.026185762137174606 0.3666894733905792 0.4866873025894165 -3.3272974491119385 -1.820056438446045 -0.2883090674877167  738339.4168347798
0.02601073496043682 0.3698839545249939 0.48659107089042664 -3.0665969848632812 -1.6707298755645752 -0.28873661160469055  738339.4168348885
0.025865811854600906 0.37313297390937805 0.48649123311042786 -2.779580593109131 -1.5131419897079468 -0.2888302803039551  738339.416835038
0.03004426509141922 0.3746093809604645 0.48601406812667847 -2.645223617553711 -1.5295867919921875 -0.31471890211105347  738339.4168351302
0.03006814979016781 0.37798625230789185 0.4859001934528351 -2.3547451496124268 -1.4015146493911743 -0.31873399019241333  738339.4168352426
0.030117571353912354 0.38140612840652466 0.4857940673828125 -2.0761420726776123 -1.2960151433944702 -0.33555659651756287  738339.4168353605
0.030190059915184975 0.3848634362220764 0.48567622900009155 -1.795716643333435 -1.2009860277175903 -0.3403075337409973  738339.416835474
0.030283953994512558 0.388353556394577 0.4855484068393707 -1.5376100540161133 -1.1025060415267944 -0.3564174473285675  738339.416835592
0.030397901311516762 0.3918723165988922 0.4854280948638916 -1.2766331434249878 -1.0034723281860352 -0.36078086495399475  738339.4168357074
0.03052997961640358 0.3954150080680847 0.48530423641204834 -1.0212829113006592 -0.8766031861305237 -0.3768242299556732  738339.4168358241
0.03067811019718647 0.3989771008491516 0.4851669669151306 -0.7527416348457336 -0.7669437527656555 -0.3933420777320862  738339.4168359325
0.03084034100174904 0.4025542438030243 0.4850216209888458 -0.4775795042514801 -0.6457806825637817 -0.4085736572742462  738339.4168360899
0.034765828400850296 0.40304702520370483 0.4853688180446625 -0.3227212727069855 -0.5909996032714844 -0.45441487431526184  738339.4168361593
0.03505365923047066 0.4066329002380371 0.48524343967437744 -0.05128593370318413 -0.44248098134994507 -0.4737994074821472  738339.4168362832
0.035350359976291656 0.4102219045162201 0.48511555790901184 0.23915214836597443 -0.30667510628700256 -0.48788049817085266  738339.4168363987
0.03565343841910362 0.4138093888759613 0.48497673869132996 0.5258204936981201 -0.15872755646705627 -0.5048037171363831  738339.4168365113
0.03596046194434166 0.4173904061317444 0.4848305284976959 0.7945716977119446 -0.025416715070605278 -0.522867739200592  738339.4168366271
0.03626897931098938 0.4209602475166321 0.4846785068511963 1.050939917564392 0.08120763301849365 -0.5365621447563171  738339.4168367442
0.03657691925764084 0.42451465129852295 0.4845101833343506 1.3091778755187988 0.21439987421035767 -0.5618178248405457  738339.4168368598
0.03688226640224457 0.4280494749546051 0.48431915044784546 1.5538902282714844 0.3251727223396301 -0.5893756747245789  738339.4168369794
0.037182826548814774 0.4315601587295532 0.4841189384460449 1.8019607067108154 0.43439188599586487 -0.612984836101532  738339.4168370885
0.037476588040590286 0.43504223227500916 0.4839182198047638 2.040734052658081 0.5426746010780334 -0.6401517391204834  738339.416837207
0.037761759012937546 0.43849197030067444 0.4837042987346649 2.270852565765381 0.650105357170105 -0.6670463681221008  738339.416837326
0.04213560000061989 0.43721628189086914 0.4858510494232178 2.3836123943328857 0.6260988712310791 -0.7103227972984314  738339.4168374378
0.04251355677843094 0.44055435061454773 0.4856964349746704 2.606229305267334 0.7438068389892578 -0.7284654378890991  738339.4168375558
0.04287916421890259 0.4438495635986328 0.48554727435112 2.8389930725097656 0.8660536408424377 -0.7444558143615723  738339.4168376686
0.04323022440075874 0.4470978081226349 0.48540881276130676 3.06960129737854 0.9659305214881897 -0.7706515192985535  738339.4168377782
0.04356468468904495 0.45029494166374207 0.4852825999259949 3.296651840209961 1.0835168361663818 -0.7979652881622314  738339.4168379031
0.04388058930635452 0.45343706011772156 0.48516902327537537 3.540470838546753 1.2006345987319946 -0.8238261342048645  738339.4168380129
0.044175587594509125 0.4565194547176361 0.4850776791572571 3.7849559783935547 1.270524024963379 -0.8475149869918823  738339.4168381365
0.044448256492614746 0.45953866839408875 0.48499608039855957 4.0080060958862305 1.3644604682922363 -0.8723170757293701  738339.4168382506
0.044697247445583344 0.46249115467071533 0.4849183261394501 4.214963912963867 1.445618987083435 -0.8985990881919861  738339.4168383741
0.048811621963977814 0.45901283621788025 0.4887743592262268 4.4975738525390625 1.4030390977859497 -0.9081189632415771  738339.4168384742
0.049120109528303146 0.46169033646583557 0.4888617992401123 4.709140300750732 1.4652899503707886 -0.9358161091804504  738339.4168385835
0.049401380121707916 0.46428510546684265 0.4889984130859375 4.883365631103516 1.5531971454620361 -0.9544058442115784  738339.4168387135
0.04965396225452423 0.46679365634918213 0.48918506503105164 5.052896976470947 1.6408532857894897 -0.9671249389648438  738339.4168388214
0.04987632855772972 0.46921324729919434 0.4894176423549652 5.215138912200928 1.7529181241989136 -0.9920095801353455  738339.4168389397
0.050067197531461716 0.47154268622398376 0.48967689275741577 5.364130973815918 1.873897671699524 -1.0081716775894165  738339.4168390568
0.05022478848695755 0.4737801253795624 0.4899536669254303 5.517218589782715 2.007744073867798 -1.0277202129364014  738339.4168391769
0.05034681782126427 0.4759230613708496 0.49024704098701477 5.6717848777771 2.163135528564453 -1.0494447946548462  738339.4168392797
0.05043088272213936 0.47796931862831116 0.4905519187450409 5.821179389953613 2.300379514694214 -1.0611263513565063  738339.4168394036
0.05047447979450226 0.479916512966156 0.49086615443229675 5.971255302429199 2.4412550926208496 -1.073921799659729  738339.4168395438
0.05412042886018753 0.4739702641963959 0.4957412779331207 6.166934013366699 2.4547982215881348 -1.0923346281051636  738339.4168396367
0.05418507009744644 0.4755605459213257 0.496204137802124 6.322245121002197 2.5867550373077393 -1.095484733581543  738339.416839748
0.054203156381845474 0.4770411550998688 0.49669402837753296 6.465222358703613 2.70709228515625 -1.087541937828064  738339.4168398619
0.05416722968220711 0.47854140400886536 0.49725231528282166 6.5904340744018555 2.797546863555908 -1.08548104763031  738339.4168399834
0.05408233776688576 0.47978708148002625 0.49776995182037354 6.667184352874756 2.8775224685668945 -1.0821484327316284  738339.4168401036
0.05394641309976578 0.4809189438819885 0.4982925057411194 6.72645902633667 2.9226691722869873 -1.071048617362976  738339.4168402064
0.053759194910526276 0.48193758726119995 0.49880489706993103 6.758407115936279 2.9527394771575928 -1.0515283346176147  738339.4168403315
0.053520750254392624 0.48284369707107544 0.499294638633728 6.755976676940918 2.97135066986084 -1.0437794923782349  738339.4168404477
0.05323076620697975 0.4836372137069702 0.4997599422931671 6.710886001586914 2.9839329719543457 -1.0306075811386108  738339.4168405511
0.05288896709680557 0.48431843519210815 0.5002017617225647 6.655329704284668 2.998413562774658 -1.0117464065551758  738339.4168407848
0.05249529331922531 0.4848884344100952 0.5006179809570312 6.606687068939209 2.9721968173980713 -0.9938318729400635  738339.4168408341
0.05535690486431122 0.4752103090286255 0.5049669146537781 6.693574905395508 2.8799006938934326 -0.987300455570221  738339.4168409006
0.05494527146220207 0.47532400488853455 0.5054528713226318 6.603824615478516 2.8380002975463867 -0.9697867035865784  738339.4168410173
0.05448298528790474 0.4753246307373047 0.5059340596199036 6.5204243659973145 2.782726526260376 -0.9415462017059326  738339.416841135
0.053971536457538605 0.4752149283885956 0.5063989758491516 6.411584854125977 2.722134590148926 -0.9150495529174805  738339.4168412453
0.05341252684593201 0.47499775886535645 0.5068364143371582 6.262713432312012 2.6895511150360107 -0.8936290740966797  738339.416841365
0.052807606756687164 0.47467702627182007 0.5072299242019653 6.108105659484863 2.6304986476898193 -0.8703948855400085  738339.4168414787
0.052158065140247345 0.4742562770843506 0.507569432258606 5.9239935874938965 2.6132755279541016 -0.8550141453742981  738339.416841604
0.05146416276693344 0.47373726963996887 0.5078644752502441 5.707169055938721 2.6364917755126953 -0.8466925621032715  738339.416841708
0.05072476714849472 0.4731208384037018 0.5081397294998169 5.480034351348877 2.6356873512268066 -0.8272261619567871  738339.4168418843
0.05293817073106766 0.4635084271430969 0.5113089084625244 5.387185573577881 2.608124017715454 -0.8293809294700623  738339.4168419573
0.05217476189136505 0.46250152587890625 0.5115777254104614 5.151786804199219 2.620445728302002 -0.810548722743988  738339.4168420589
0.05136778950691223 0.4614093601703644 0.5117936730384827 4.902432441711426 2.623940944671631 -0.7835606932640076  738339.4168421802
0.050517357885837555 0.4602361023426056 0.5119538307189941 4.632621765136719 2.621790647506714 -0.7648178339004517  738339.4168422939
0.04962349310517311 0.4589858651161194 0.5120587944984436 4.349843502044678 2.590177536010742 -0.7324035167694092  738339.4168424141
0.048685673624277115 0.4576616883277893 0.5121275782585144 4.056214809417725 2.5608980655670166 -0.7065045237541199  738339.4168425271
0.04770344868302345 0.45626676082611084 0.5121832489967346 3.7469701766967773 2.5279626846313477 -0.6759618520736694  738339.4168426365
0.04667659103870392 0.45480501651763916 0.5122448205947876 3.444533348083496 2.4399054050445557 -0.6403661370277405  738339.4168427524
0.045606713742017746 0.45328232645988464 0.5123018622398376 3.1307690143585205 2.3467915058135986 -0.6062091588973999  738339.4168428783
0.04449615627527237 0.45170482993125916 0.5123367309570312 2.8399438858032227 2.258047580718994 -0.5766518115997314  738339.4168429866
0.043346863240003586 0.45007798075675964 0.512340784072876 2.5638580322265625 2.162665367126465 -0.5470461845397949  738339.4168431534
0.045136708766222 0.43947234749794006 0.5146760940551758 2.4824295043945312 2.062722682952881 -0.533719539642334  738339.4168432134
0.04395322501659393 0.4375334084033966 0.5146499872207642 2.2234318256378174 1.9034982919692993 -0.5026736855506897  738339.4168433413
0.0427376888692379 0.43555697798728943 0.5145539045333862 1.9533343315124512 1.7646489143371582 -0.4690563380718231  738339.416843453
0.041492387652397156 0.4335470497608185 0.5143920183181763 1.6707828044891357 1.6689854860305786 -0.42959222197532654  738339.4168435712
0.04021909087896347 0.43150779604911804 0.5141729712486267 1.3890653848648071 1.5284615755081177 -0.4011588394641876  738339.4168436817
0.03891993686556816 0.42944392561912537 0.5138869881629944 1.0893632173538208 1.4130486249923706 -0.36832964420318604  738339.4168437879
0.03759678080677986 0.42735984921455383 0.5135445594787598 0.7712682485580444 1.3226921558380127 -0.33117836713790894  738339.4168439123
0.03625085949897766 0.4252602756023407 0.5131680369377136 0.4482855796813965 1.2303194999694824 -0.29855507612228394  738339.4168440168
0.0348835326731205 0.4231504499912262 0.5127665996551514 0.1290116161108017 1.1187005043029785 -0.2596549093723297  738339.4168441986
0.03616664931178093 0.41413697600364685 0.5142039656639099 -0.10059203207492828 1.0584330558776855 -0.2658185362815857  738339.4168442494
0.034785281866788864 0.4118770658969879 0.5137899518013 -0.3917447626590729 0.9482113122940063 -0.23740223050117493  738339.4168443702
0.033386919647455215 0.40962129831314087 0.5133640170097351 -0.6600968241691589 0.8250028491020203 -0.19457818567752838  738339.4168444832
0.031973663717508316 0.4073742926120758 0.5129182934761047 -0.9177075028419495 0.7229233384132385 -0.1563124656677246  738339.4168445995
0.03054741583764553 0.40514039993286133 0.5124512910842896 -1.160585880279541 0.622599720954895 -0.11358418315649033  738339.416844714
0.029109787195920944 0.4029240310192108 0.5119723081588745 -1.383136510848999 0.5041753649711609 -0.07778650522232056  738339.4168448342
0.02766263671219349 0.4007290303707123 0.5114787220954895 -1.6108039617538452 0.3715185523033142 -0.03397779539227486  738339.4168449506
0.0262080579996109 0.39855921268463135 0.5109702348709106 -1.8046128749847412 0.24463486671447754 0.004382128827273846  738339.4168450773
0.02474828250706196 0.3964177370071411 0.5104345083236694 -2.0064642429351807 0.12824487686157227 0.04177981615066528  738339.4168451864
0.0232852753251791 0.39430809020996094 0.5098780989646912 -2.182581663131714 0.014531134627759457 0.08188393712043762  738339.416845302
0.021820969879627228 0.3922345042228699 0.5093268752098083 -2.344104290008545 -0.09524673223495483 0.12156404554843903  738339.4168454594
0.02346143126487732 0.38494664430618286 0.5110019445419312 -2.4812755584716797 -0.1454237401485443 0.13533292710781097  738339.4168455286
0.022025518119335175 0.38286975026130676 0.5105409026145935 -2.5997369289398193 -0.25027844309806824 0.17396488785743713  738339.4168456404
0.020592907443642616 0.38083699345588684 0.5100927352905273 -2.688159704208374 -0.34484612941741943 0.2114475667476654  738339.4168457594
0.019165221601724625 0.37884965538978577 0.5096461772918701 -2.768911600112915 -0.4416336715221405 0.25469735264778137  738339.4168458751
0.0177440345287323 0.3769091069698334 0.5091996788978577 -2.8432364463806152 -0.5372815132141113 0.30108770728111267  738339.4168459971
0.016331057995557785 0.3750172257423401 0.5087642669677734 -2.9134395122528076 -0.6232418417930603 0.3429664671421051  738339.416846101
0.014927932992577553 0.37317582964897156 0.5083498954772949 -2.975421190261841 -0.7178934812545776 0.3884766101837158  738339.4168462206
0.013536257669329643 0.37138631939888 0.5079611539840698 -3.020632266998291 -0.8082290291786194 0.430370956659317  738339.4168463373
0.01215754821896553 0.36964941024780273 0.5075935125350952 -3.0610220432281494 -0.9021757245063782 0.4751083552837372  738339.4168465075
0.014251060783863068 0.36479952931404114 0.5093756914138794 -3.0902109146118164 -0.9152622818946838 0.5092917084693909  738339.4168465781
0.012933287769556046 0.36312025785446167 0.5090568661689758 -3.082995653152466 -1.006435751914978 0.5534829497337341  738339.4168466871
0.011631722562015057 0.3614949882030487 0.5087553262710571 -3.060023069381714 -1.085653305053711 0.5919240713119507  738339.4168468016
0.010348084382712841 0.3599241375923157 0.5084837079048157 -3.021991491317749 -1.160538673400879 0.6292916536331177  738339.4168469181
0.009083357639610767 0.35840633511543274 0.5082252025604248 -2.9539730548858643 -1.2447627782821655 0.6693483591079712  738339.4168470311
0.007838968187570572 0.3569408655166626 0.5079834461212158 -2.8711161613464355 -1.3207632303237915 0.7095648050308228  738339.4168471502
0.00661670183762908 0.3555273115634918 0.5077763795852661 -2.7661964893341064 -1.3855799436569214 0.7480307221412659  738339.4168472647
0.005417973268777132 0.35416436195373535 0.5076112747192383 -2.6488964557647705 -1.4477455615997314 0.7915791273117065  738339.4168473862
0.0042433408088982105 0.35284900665283203 0.5074654221534729 -2.515674114227295 -1.5187160968780518 0.8297275900840759  738339.4168476589
0.003093525767326355 0.35157841444015503 0.5073224306106567 -2.3775696754455566 -1.573519229888916 0.8690246343612671  738339.4168477282
0.0019695921801030636 0.3503502309322357 0.5071813464164734 -2.2434961795806885 -1.6330056190490723 0.9026867151260376  738339.4168477512
0.00478005688637495 0.34811466932296753 0.5089988708496094 -2.2036850452423096 -1.5981675386428833 0.9442057013511658  738339.4168478441
0.00373966246843338 0.34698641300201416 0.5089297890663147 -2.058185338973999 -1.6555523872375488 0.9775964617729187  738339.4168479582
0.0027269767597317696 0.3458957076072693 0.5088774561882019 -1.8944448232650757 -1.7074484825134277 1.0137083530426025  738339.4168480701
0.0017428274732083082 0.34483975172042847 0.5088368654251099 -1.7299127578735352 -1.7661118507385254 1.0509178638458252  738339.4168481849
0.0007882015779614449 0.34381574392318726 0.5088080763816833 -1.5566846132278442 -1.815596103668213 1.0826815366744995  738339.4168483041
-0.00013588648289442062 0.34282082319259644 0.5087922215461731 -1.3797253370285034 -1.87040114402771 1.1185885667800903  738339.4168484191
-0.001028790371492505 0.34185174107551575 0.5087799429893494 -1.1893854141235352 -1.9059746265411377 1.1487319469451904  738339.4168485369
-0.001889688428491354 0.34090539813041687 0.5087713003158569 -1.0083916187286377 -1.9371187686920166 1.1785013675689697  738339.4168486497
-0.0027183187194168568 0.3399783968925476 0.5087552070617676 -0.8183726072311401 -1.9489965438842773 1.2109187841415405  738339.4168487913
0.0006877926061861217 0.33884161710739136 0.5098769068717957 -0.7824244499206543 -1.9360336065292358 1.2360625267028809  738339.4168488747
-1.4388526324182749e-05 0.33799493312835693 0.5098618268966675 -0.6051577925682068 -1.9421069622039795 1.2602053880691528  738339.4168490021
-0.0006833540392108262 0.33716094493865967 0.5098549127578735 -0.42634060978889465 -1.958303689956665 1.2824417352676392  738339.416849106
-0.0013190030585974455 0.33633652329444885 0.5098514556884766 -0.24333684146404266 -1.9556207656860352 1.2917217016220093  738339.4168492323
-0.0019213244086131454 0.33551859855651855 0.5098464488983154 -0.07236215472221375 -1.9431248903274536 1.3142277002334595  738339.4168493483
-0.002490484621375799 0.33470413088798523 0.5098367929458618 0.10851176828145981 -1.9196912050247192 1.3276711702346802  738339.4168494574
-0.0030272614676505327 0.3338901698589325 0.5098063945770264 0.29366645216941833 -1.8914880752563477 1.328804612159729  738339.4168495722
-0.0035322047770023346 0.3330736756324768 0.5097493529319763 0.4750666320323944 -1.8565212488174438 1.3381825685501099  738339.4168496912
