% x y z r p yw  738318.7155670832
0.0910678505897522 -0.1406981498003006 0.04814237356185913 23.601619720458984 52.4248046875 173.14234924316406  738318.7155867416
0.11626821756362915 -0.125486820936203 0.05498707666993141 22.590845108032227 51.70402526855469 173.71437072753906  738318.7155868569
0.13742704689502716 -0.11601464450359344 0.042790234088897705 21.837688446044922 51.36517333984375 174.03302001953125  738318.7155871068
0.1634829342365265 -0.10556276887655258 0.05011149123311043 20.439260482788086 50.492897033691406 174.7462158203125  738318.7155871644
0.12903085350990295 -0.04669415205717087 0.03836483880877495 26.95050048828125 57.740360260009766 170.91783142089844  738318.7155871991
0.16852325201034546 -0.025098182260990143 0.03710319101810455 24.73049545288086 56.79206848144531 171.9624786376953  738318.7155873138
0.19579409062862396 -0.01023067906498909 0.03112400509417057 22.3726863861084 55.802284240722656 172.96287536621094  738318.7155874339
0.22838592529296875 0.005687261000275612 0.0334530845284462 19.522077560424805 54.499324798583984 174.13211059570312  738318.7155875608
0.25388583540916443 0.01827559433877468 0.046683453023433685 16.244741439819336 52.74681091308594 175.39837646484375  738318.7155877657
0.2767898440361023 0.02803882583975792 0.06590720266103745 12.611404418945312 50.63225173950195 176.6962127685547  738318.7155878034
0.3033130466938019 0.03713978826999664 0.08420363813638687 8.68875789642334 48.22500228881836 177.87265014648438  738318.715587918
0.31379231810569763 0.03962455689907074 0.08745161443948746 4.996874809265137 45.924720764160156 178.5933380126953  738318.7155880043
0.33253490924835205 0.04379001259803772 0.11795840412378311 0.7562340497970581 42.720035552978516 179.43528747558594  738318.7155881466
0.2326505482196808 0.07598485797643661 0.12328564375638962 0.9232302308082581 48.91327667236328 -178.92222595214844  738318.7155882462
0.2583490312099457 0.09013211727142334 0.14187867939472198 -3.3097496032714844 45.01389694213867 -178.56727600097656  738318.7155883618
0.25821176171302795 0.0866142064332962 0.1261327713727951 -7.086706161499023 41.064544677734375 -178.87542724609375  738318.7155884659
0.27174457907676697 0.09596280753612518 0.14856742322444916 -11.096699714660645 35.97687911987305 -179.4361114501953  738318.7155885823
0.2864360511302948 0.10316699743270874 0.16454382240772247 -15.011760711669922 30.59586524963379 179.4688720703125  738318.7155887089
0.29546722769737244 0.10814772546291351 0.18122874200344086 -18.929786682128906 24.779935836791992 177.87867736816406  738318.7155888104
0.303928405046463 0.1158248633146286 0.1956639140844345 -22.724172592163086 18.828384399414062 175.8754425048828  738318.7155889374
0.28601470589637756 0.10784219205379486 0.18708907067775726 -27.107410430908203 13.124022483825684 174.60179138183594  738318.7155890536
0.3088054656982422 0.11715947836637497 0.18983666598796844 -33.03215789794922 7.061634063720703 175.86309814453125  738318.7155891716
0.3200870156288147 0.12158746272325516 0.19649465382099152 -40.05900573730469 0.040564462542533875 177.2359161376953  738318.7155892762
0.40170934796333313 0.15400011837482452 0.2444983869791031 -48.86116409301758 -8.197125434875488 178.14772033691406  738318.7155894169
0.2241126000881195 0.17849107086658478 0.21525320410728455 -53.82512283325195 -7.488070011138916 -171.6629638671875  738318.7155895198
0.2657952904701233 0.20145148038864136 0.21135222911834717 -63.274574279785156 -14.154170036315918 -170.51498413085938  738318.7155896304
0.32041656970977783 0.22815094888210297 0.22601431608200073 -74.6857681274414 -21.18328857421875 -170.92868041992188  738318.7155897336
0.35722097754478455 0.2443908154964447 0.21724659204483032 -87.19944763183594 -27.888246536254883 -171.8201141357422  738318.7155898674
0.40086090564727783 0.26835739612579346 0.21104402840137482 -98.58154296875 -32.131168365478516 -173.15884399414062  738318.7155899799
0.4509483575820923 0.2939428985118866 0.2035997062921524 -109.48787689208984 -30.40332794189453 175.83670043945312  738318.7155900995
0.5014215111732483 0.3215588629245758 0.192910835146904 -119.66323852539062 -24.22770118713379 159.54318237304688  738318.7155902031
0.5609712600708008 0.34444794058799744 0.18120548129081726 -130.0964813232422 -16.39627456665039 144.81454467773438  738318.7155903513
0.6002569794654846 0.35562026500701904 0.18761536478996277 -142.43203735351562 -9.399593353271484 131.96453857421875  738318.7155905132
0.27993011474609375 0.3149217367172241 0.20143181085586548 -148.2662353515625 -11.251145362854004 125.87237548828125  738318.7155905593
0.32889604568481445 0.32955604791641235 0.19245003163814545 -144.35720825195312 -3.654904365539551 110.84786987304688  738318.7155906747
0.37112554907798767 0.32278457283973694 0.19317150115966797 -138.20230102539062 4.309108257293701 99.08916473388672  738318.7155907879
0.41047877073287964 0.30893340706825256 0.1898248940706253 -131.54071044921875 12.471060752868652 87.20167541503906  738318.7155908998
0.4436395466327667 0.29227733612060547 0.19294285774230957 -123.44581604003906 18.813718795776367 73.90113830566406  738318.7155910248
0.4916048049926758 0.3125889003276825 0.1901654750108719 -113.09903717041016 22.162384033203125 58.5165901184082  738318.7155911376
0.4892309010028839 0.24844227731227875 0.23412929475307465 -102.94268798828125 23.603601455688477 41.80051040649414  738318.7155912516
0.5281504988670349 0.25442174077033997 0.2365356683731079 -91.12187957763672 20.330053329467773 25.038278579711914  738318.7155913623
0.5766815543174744 0.26975348591804504 0.23544499278068542 -80.5245132446289 13.65087890625 9.713764190673828  738318.7155914789
0.6336236596107483 0.28724849224090576 0.23008376359939575 -71.81710815429688 4.304924011230469 -3.636617422103882  738318.7155915954
0.6954886317253113 0.2986668050289154 0.22117838263511658 -65.28875732421875 -6.875226974487305 -15.400589942932129  738318.7155917294
0.3002856373786926 0.11241955310106277 0.06359640508890152 -52.82958984375 -15.00916576385498 -18.3709774017334  738318.7155918296
0.35999858379364014 0.08669127523899078 0.05231631547212601 -50.1939697265625 -28.870603561401367 -27.38160514831543  738318.7155919438
0.4130101799964905 0.06259217858314514 0.04160720109939575 -51.111446380615234 -42.51146697998047 -37.554325103759766  738318.7155920601
0.45590540766716003 0.0206065084785223 0.021018486469984055 -57.493831634521484 -55.436702728271484 -51.38454055786133  738318.715592171
0.49286508560180664 -0.015455012209713459 -0.0024048686027526855 -74.0997543334961 -66.14537048339844 -74.17227935791016  738318.7155922856
0.5577358603477478 -0.026487581431865692 -0.008440827950835228 -97.29930114746094 -69.0890121459961 -102.11178588867188  738318.715592403
0.6156795620918274 -0.028974968940019608 -0.022678550332784653 -107.50743865966797 -68.00717163085938 -111.5614013671875  738318.7155925189
0.6811530590057373 -0.028309188783168793 -0.03920541703701019 -112.15634155273438 -63.64986038208008 -117.83561706542969  738318.7155926346
0.7438175678253174 -0.013877368532121181 -0.05503830686211586 -109.55208587646484 -56.35996627807617 -121.29642486572266  738318.7155928718
0.8075686693191528 0.002317760605365038 -0.07414508610963821 -102.4549560546875 -48.283203125 -121.17298889160156  738318.7155929036
0.450717031955719 -0.23265840113162994 -0.10156194865703583 -75.79680633544922 -35.93587875366211 -110.69747161865234  738318.7155929958
0.5080461502075195 -0.2451012283563614 -0.11465007811784744 -69.03753662109375 -28.359012603759766 -113.25420379638672  738318.7155930997
0.5715734362602234 -0.24804027378559113 -0.12300300598144531 -61.54733657836914 -20.624614715576172 -115.63225555419922  738318.7155932194
0.652079701423645 -0.2237352728843689 -0.1033189594745636 -52.972190856933594 -13.604264259338379 -117.75357818603516  738318.715593326
0.8560200333595276 -0.14563478529453278 0.02094651386141777 -41.484886169433594 -8.344908714294434 -118.55325317382812  738318.7155934398
0.9199182391166687 -0.15876935422420502 0.009876396507024765 -31.824121475219727 -0.0842876136302948 -122.38082122802734  738318.7155935557
1.0628299713134766 0.16203537583351135 0.1285286396741867 -21.277488708496094 5.794924259185791 -126.26185607910156  738318.7155936719
1.1050432920455933 0.19475778937339783 0.1667916476726532 -10.74520492553711 13.772244453430176 -132.23060607910156  738318.7155937954
1.0959382057189941 0.25196853280067444 0.16795732080936432 -0.031893033534288406 21.6124210357666 -139.4918975830078  738318.7155939325
0.6844043731689453 0.16532392799854279 0.14364705979824066 27.872591018676758 32.24391555786133 -153.53204345703125  738318.7155940251
0.7180277705192566 0.18967151641845703 0.13575822114944458 41.239925384521484 34.490413665771484 -166.36329650878906  738318.7155941518
0.7552577257156372 0.2100546956062317 0.12110613286495209 54.43663024902344 34.65175247192383 179.94732666015625  738318.7155942596
0.7968229055404663 0.22597849369049072 0.1018848568201065 66.66983032226562 32.69955062866211 166.26025390625  738318.7155943732
0.717553973197937 0.29358598589897156 0.01349271647632122 78.86119079589844 29.62295150756836 152.6006317138672  738318.7155944908
0.7637274265289307 0.30359047651290894 -0.02063770219683647 87.11356353759766 23.825719833374023 141.2745819091797  738318.715594602
0.8115990161895752 0.3140832781791687 -0.054058291018009186 92.70199584960938 17.054258346557617 131.33587646484375  738318.7155947234
0.86187344789505 0.325183242559433 -0.08729848265647888 95.69189453125 9.844264030456543 122.35608673095703  738318.7155948277
0.9119850397109985 0.35340702533721924 -0.1072390228509903 95.13550567626953 4.540900230407715 113.63372802734375  738318.7155949662
0.9627262353897095 0.37334197759628296 -0.1419670283794403 93.38506317138672 9.926513671875 103.89600372314453  738318.7155950543
1.017578125 0.39075204730033875 -0.17719489336013794 93.48062133789062 19.90309715270996 96.86382293701172  738318.715595213
0.729493260383606 0.15004365146160126 -0.32801002264022827 108.00448608398438 21.18539047241211 84.86876678466797  738318.715595296
0.7806957960128784 0.15927153825759888 -0.3661361038684845 107.15327453613281 21.750032424926758 78.06046295166016  738318.7155954108
0.8312859535217285 0.17649860680103302 -0.4095650911331177 105.94425964355469 18.437772750854492 71.43571472167969  738318.7155955298
0.8848848938941956 0.18384093046188354 -0.45040786266326904 105.1278305053711 14.491032600402832 64.06014251708984  738318.7155956465
0.9390110373497009 0.18146269023418427 -0.48667237162590027 103.79298400878906 10.118932723999023 56.627716064453125  738318.7155957567
0.9928727149963379 0.1858217418193817 -0.5340041518211365 101.4676284790039 4.856012344360352 48.70627212524414  738318.7155958695
1.0450190305709839 0.18468903005123138 -0.5753443241119385 97.20645904541016 0.4408128261566162 39.126522064208984  738318.7155959954
1.0994361639022827 0.1884966343641281 -0.6365220546722412 91.27465057373047 -2.8821516036987305 28.448684692382812  738318.7155960996
1.1544222831726074 0.19000667333602905 -0.6945050954818726 83.85856628417969 -4.760957717895508 17.371562957763672  738318.7155962447
0.8071842789649963 0.008656210266053677 -0.6409711837768555 90.6308822631836 -4.849427223205566 -5.189188480377197  738318.7155963348
0.8607596158981323 0.0003233160823583603 -0.6900719404220581 83.14933013916016 -5.846624374389648 -17.053882598876953  738318.7155964519
0.9697757363319397 0.22358471155166626 0.12996827065944672 89.18331146240234 14.58089542388916 -33.99561309814453  738318.7155965687
1.006154179573059 0.22577004134655 0.13844048976898193 103.62113952636719 5.878609657287598 -52.29010009765625  738318.7155966936
1.0659233331680298 0.2156270146369934 0.14382700622081757 117.22461700439453 -4.961223125457764 -66.79301452636719  738318.715596797
1.116794466972351 0.2110358327627182 0.15961523354053497 124.41307830810547 -12.200578689575195 -70.33865356445312  738318.715596918
1.1698777675628662 0.21905361115932465 0.17265070974826813 127.86420440673828 -16.09115219116211 -70.17446899414062  738318.7155970244
1.2259515523910522 0.21749712526798248 0.18746715784072876 133.33206176757812 -20.067060470581055 -70.35362243652344  738318.7155971519
1.2800712585449219 0.23112425208091736 0.19980165362358093 138.127685546875 -21.366186141967773 -68.51510620117188  738318.7155972577
1.3354920148849487 0.22892241179943085 0.21688811480998993 143.8984375 -23.32379150390625 -67.82754516601562  738318.715597381
1.38968825340271 0.23406189680099487 0.23182640969753265 150.05804443359375 -24.788593292236328 -67.11061096191406  738318.7155975293
1.033043622970581 -0.6343915462493896 0.3742525577545166 163.88067626953125 -47.09417724609375 -143.75845336914062  738318.7155976098
1.0462034940719604 -0.6776233911514282 0.3762670159339905 172.0634765625 -47.149192810058594 -140.57366943359375  738318.7155977279
1.0570324659347534 -0.7222941517829895 0.37852707505226135 -179.6986846923828 -46.59737014770508 -137.42892456054688  738318.7155978302
1.0715000629425049 -0.7695543169975281 0.3787216544151306 -171.38873291015625 -45.407962799072266 -135.05206298828125  738318.7155979461
1.0812150239944458 -0.8119090795516968 0.3797944486141205 -164.0050811767578 -43.99443054199219 -133.489990234375  738318.7155980794
1.0942072868347168 -0.8537706136703491 0.3785153925418854 -156.5628662109375 -42.056793212890625 -132.27723693847656  738318.7155981784
1.1038012504577637 -0.8932757377624512 0.3782985508441925 -148.8279571533203 -39.60160446166992 -131.27967834472656  738318.7155982946
1.1178193092346191 -0.9349455237388611 0.3750614523887634 -141.44747924804688 -36.89632034301758 -131.09622192382812  738318.7155984093
1.1290602684020996 -0.9732418060302734 0.37291985750198364 -134.33297729492188 -34.2907829284668 -131.5975341796875  738318.7155985625
0.7331323027610779 -1.0684834718704224 0.298793226480484 -133.13485717773438 -50.24819564819336 -145.41119384765625  738318.7155986461
0.7418210506439209 -1.1028324365615845 0.28847646713256836 -126.94900512695312 -47.48991775512695 -147.01699829101562  738318.7155987659
0.7534255981445312 -1.141819715499878 0.27549365162849426 -120.52091979980469 -44.934913635253906 -149.16583251953125  738318.715598903
0.7638540863990784 -1.1792203187942505 0.26454848051071167 -113.96642303466797 -43.317665100097656 -152.07252502441406  738318.7155989958
0.7770581841468811 -1.2214430570602417 0.25558358430862427 -108.15940856933594 -43.51570129394531 -154.58645629882812  738318.7155991175
0.7895035147666931 -1.2669034004211426 0.2478368878364563 -101.28494262695312 -44.5125846862793 -153.88876342773438  738318.7155992292
0.8026671409606934 -1.3145058155059814 0.24096481502056122 -94.00369262695312 -45.881141662597656 -151.77577209472656  738318.7155993382
0.8163315057754517 -1.362151026725769 0.23365195095539093 -86.30702209472656 -47.394805908203125 -149.6014862060547  738318.7155994542
0.7601283192634583 -1.4507261514663696 0.009271934628486633 -82.07608032226562 -48.8591194152832 -150.8649444580078  738318.7155995702
0.7746104598045349 -1.4914932250976562 -0.008409479632973671 -74.09500122070312 -49.86137008666992 -149.536865234375  738318.7155996846
0.7870191335678101 -1.5349695682525635 -0.0257509034126997 -65.57227325439453 -51.19662094116211 -147.94866943359375  738318.715599825
0.46156883239746094 -1.4019581079483032 -0.02078147605061531 -22.47784996032715 -62.02866744995117 -102.77069091796875  738318.7155999175
0.461336225271225 -1.430426836013794 -0.026428017765283585 -10.959260940551758 -62.43067169189453 -98.54922485351562  738318.7156000426
0.46575212478637695 -1.4433114528656006 -0.014814241789281368 -0.5538439750671387 -60.895591735839844 -93.90672302246094  738318.7156001502
0.47395628690719604 -1.4423449039459229 -0.0068950108252465725 6.134517669677734 -55.94339370727539 -89.91057586669922  738318.715600267
0.4822319447994232 -1.4351991415023804 0.006494157016277313 11.073472023010254 -51.400543212890625 -87.48291778564453  738318.7156003743
0.49677908420562744 -1.4196313619613647 0.025025896728038788 13.020031929016113 -45.574424743652344 -86.65760803222656  738318.7156004898
0.513948917388916 -1.3953118324279785 0.048770565539598465 14.30913257598877 -38.797035217285156 -85.68517303466797  738318.715600613
0.5215673446655273 -1.349348783493042 0.06671883910894394 15.764288902282715 -32.09305191040039 -84.8543701171875  738318.7156007322
0.5328493118286133 -1.314220905303955 0.0944320559501648 17.637285232543945 -25.29130744934082 -83.96578216552734  738318.7156010135
0.5514113306999207 -1.2767945528030396 0.11985043436288834 18.397554397583008 -19.564115524291992 -82.67269897460938  738318.7156010482
0.5432771444320679 -1.2325687408447266 0.13183730840682983 18.631649017333984 -19.338420867919922 -82.60154724121094  738318.7156010828
0.3215175271034241 -1.0065687894821167 0.10074419528245926 14.806843757629395 -3.6378583908081055 -68.88557434082031  738318.7156011809
0.3214402198791504 -0.9864368438720703 0.10501942783594131 13.289493560791016 -0.6210351586341858 -66.47850799560547  738318.7156013064
0.3356340229511261 -0.9616140723228455 0.1068786010146141 10.458791732788086 1.6871545314788818 -63.62268829345703  738318.7156014262
0.3456590473651886 -0.9576687216758728 0.10839255899190903 7.083427906036377 3.573403835296631 -60.33915710449219  738318.7156015538
0.32935649156570435 -0.9168601036071777 0.09005246311426163 3.115988254547119 5.278930187225342 -57.2371826171875  738318.7156016504
0.33647647500038147 -0.9066086411476135 0.08830498903989792 -0.6102473139762878 6.169703006744385 -53.97568130493164  738318.7156017674
0.3442370891571045 -0.8907831907272339 0.08630871027708054 -2.825737476348877 6.239522457122803 -51.58999252319336  738318.7156018862
0.3544839918613434 -0.8991708159446716 0.09045878797769547 -3.497776508331299 5.772741317749023 -49.94568634033203  738318.7156020273
0.21941353380680084 -0.809487521648407 0.062155693769454956 -7.3003740310668945 7.567686080932617 -38.884151458740234  738318.7156021169
0.21330958604812622 -0.8083104491233826 0.049611758440732956 -6.4359235763549805 5.4080376625061035 -37.902164459228516  738318.715602241
0.21870465576648712 -0.8129727244377136 0.048273295164108276 -4.862653732299805 2.51849627494812 -37.41262435913086  738318.7156023491
0.2253471463918686 -0.8218623995780945 0.04448756203055382 -3.0549285411834717 -0.7280414700508118 -37.13671875  738318.7156024603
0.2324732542037964 -0.8297047019004822 0.04453184828162193 -1.2498294115066528 -4.072951316833496 -36.71831130981445  738318.7156025802
0.23318560421466827 -0.8329442143440247 0.035138100385665894 0.5954559445381165 -7.367031574249268 -36.122589111328125  738318.7156026926
0.24525068700313568 -0.8332089185714722 0.03988895192742348 2.627133369445801 -10.771893501281738 -35.439048767089844  738318.7156028085
0.2546406686306 -0.8416606783866882 0.03112851083278656 4.555381774902344 -14.71642017364502 -34.830482482910156  738318.7156029274
0.27595555782318115 -0.8434875011444092 0.03598048537969589 4.010326385498047 -20.125062942504883 -35.1703987121582  738318.7156030312
0.2946043610572815 -0.8506355285644531 0.04809914529323578 1.4900647401809692 -20.82016944885254 -35.390541076660156  738318.7156032487
0.2926543951034546 -0.8421507477760315 0.04581346735358238 0.1757826805114746 -19.281780242919922 -35.66313552856445  738318.7156033065
0.18238095939159393 -0.7688707709312439 0.034513719379901886 1.8930275440216064 -15.690488815307617 -27.051456451416016  738318.7156033848
0.19482186436653137 -0.769679069519043 0.03704614192247391 -0.260585755109787 -11.749876022338867 -27.130943298339844  738318.7156034944
0.18945658206939697 -0.7685979604721069 0.03867778554558754 -0.2348000854253769 -11.713438987731934 -27.11572265625  738318.715603618
0.18954506516456604 -0.7693393230438232 0.030628444626927376 -0.14285467565059662 -10.1829252243042 -27.971525192260742  738318.715603736
0.18484102189540863 -0.7653845548629761 0.033364176750183105 -0.15573719143867493 -10.127965927124023 -27.975479125976562  738318.7156038448
0.19018502533435822 -0.7736749053001404 0.032204221934080124 1.7632204294204712 -10.160822868347168 -29.724470138549805  738318.7156039629
0.18482306599617004 -0.7705712914466858 0.036003366112709045 1.760872483253479 -10.096831321716309 -29.724807739257812  738318.7156040872
0.19356438517570496 -0.7779991626739502 0.03567865863442421 2.7219581604003906 -13.90178108215332 -29.405414581298828  738318.7156041928
0.18781201541423798 -0.7655490040779114 0.03681031987071037 2.6091208457946777 -13.795586585998535 -29.452850341796875  738318.7156043492
0.11764334887266159 -0.7277877330780029 0.02350897528231144 1.6213454008102417 -10.052411079406738 -23.033212661743164  738318.7156044273
0.12237130105495453 -0.7311486601829529 0.02314196527004242 0.7685009837150574 -9.698868751525879 -22.952821731567383  738318.7156045404
0.11603467166423798 -0.7200522422790527 0.03156118094921112 0.3193645775318146 -9.125155448913574 -22.791702270507812  738318.7156046584
0.12104879319667816 -0.7211450934410095 0.030829934403300285 0.612528920173645 -9.006525993347168 -22.73503875732422  738318.7156047742
0.1245388463139534 -0.7239466309547424 0.030273903161287308 1.3248333930969238 -9.08743667602539 -22.82714080810547  738318.7156048917
0.13000275194644928 -0.7264359593391418 0.029498020187020302 1.8032827377319336 -9.271404266357422 -22.789737701416016  738318.7156050074
0.13193482160568237 -0.7255346179008484 0.03217440843582153 1.9145890474319458 -9.240774154663086 -22.77096176147461  738318.715605123
0.1344975233078003 -0.7251694202423096 0.03290189430117607 1.615207552909851 -9.137628555297852 -22.753929138183594  738318.7156052446
0.13558749854564667 -0.724736750125885 0.034951746463775635 1.221726894378662 -8.925907135009766 -22.708473205566406  738318.7156053578
0.1359163373708725 -0.7244047522544861 0.037393487989902496 1.0648752450942993 -8.835988998413086 -22.728403091430664  738318.7156054744
0.13651250302791595 -0.7205212116241455 0.03860047832131386 0.988692045211792 -8.813638687133789 -22.747974395751953  738318.7156056741
0.13806627690792084 -0.720239520072937 0.041413914412260056 1.0929313898086548 -8.863716125488281 -22.741641998291016  738318.7156057088
0.0674036517739296 -0.6973875164985657 0.02720540203154087 1.2135348320007324 -6.482837200164795 -17.105812072753906  738318.7156058323
0.06885701417922974 -0.6966842412948608 0.028103405609726906 1.2093665599822998 -6.4081315994262695 -17.095603942871094  738318.7156059351
0.06839419901371002 -0.6973545551300049 0.02916399948298931 1.1135958433151245 -6.2093610763549805 -17.07044219970703  738318.7156060499
0.06813586503267288 -0.6949400305747986 0.031452082097530365 1.0061066150665283 -6.104081153869629 -17.084672927856445  738318.7156061578
0.06973473727703094 -0.696779191493988 0.03204232454299927 1.092390775680542 -6.126579761505127 -17.064838409423828  738318.7156062777
0.06839318573474884 -0.6951491832733154 0.030983751639723778 1.1485129594802856 -6.110928058624268 -17.03746223449707  738318.715606401
0.06906913220882416 -0.6954187750816345 0.0318843238055706 1.1090513467788696 -6.021961688995361 -17.03768539428711  738318.7156065156
0.07135555893182755 -0.6951016187667847 0.032829686999320984 0.950547456741333 -5.92919921875 -17.011877059936523  738318.7156066678
0.013422222808003426 -0.6848307251930237 0.027836423367261887 0.488857626914978 -3.977280378341675 -12.887527465820312  738318.7156067414
0.013609365560114384 -0.6851271390914917 0.02414361946284771 0.5090921521186829 -4.0005598068237305 -12.847150802612305  738318.715606857
0.011525063775479794 -0.6823617815971375 0.025173598900437355 0.5118300318717957 -3.935384511947632 -12.863945007324219  738318.715606961
0.012921913526952267 -0.6835407018661499 0.02525419183075428 0.5252091884613037 -3.8703222274780273 -12.835994720458984  738318.7156070889
0.013430668041110039 -0.6835897564888 0.025690453127026558 0.4793567359447479 -3.7977731227874756 -12.842672348022461  738318.7156072045
0.013521157205104828 -0.6841601133346558 0.026120183989405632 0.4760968089103699 -3.7724101543426514 -12.814242362976074  738318.7156073254
0.015590117312967777 -0.6821116209030151 0.02742239087820053 0.3991682827472687 -3.7842869758605957 -12.825967788696289  738318.7156074358
0.017167644575238228 -0.6853583455085754 0.02726149559020996 0.42761802673339844 -3.805076837539673 -12.790216445922852  738318.7156075396
0.016663311049342155 -0.6858216524124146 0.027804173529148102 0.399208664894104 -3.725862979888916 -12.806316375732422  738318.7156076685
0.018261590972542763 -0.6860283017158508 0.028208984062075615 0.33949023485183716 -3.7000467777252197 -12.762351989746094  738318.7156077945
0.0191611610352993 -0.6848694086074829 0.02590547688305378 0.31702104210853577 -3.683533191680908 -12.787736892700195  738318.7156079231
-0.03192543610930443 -0.68198561668396 0.023870933800935745 0.11035410314798355 -2.1431736946105957 -9.377229690551758  738318.7156080137
-0.031123172491788864 -0.6834107041358948 0.023846028372645378 0.13265669345855713 -2.1442313194274902 -9.406108856201172  738318.715608127
-0.03184116259217262 -0.6813684701919556 0.024453623220324516 0.06598000228404999 -2.0820019245147705 -9.36628532409668  738318.7156082448
-0.030595585703849792 -0.6814810037612915 0.028043381869792938 0.031103385612368584 -2.0734028816223145 -9.390145301818848  738318.7156083717
-0.02967947907745838 -0.681250274181366 0.02840920351445675 -0.0070449537597596645 -2.0763213634490967 -9.353521347045898  738318.7156084912
-0.029025180265307426 -0.6816953420639038 0.028716452419757843 -0.033298540860414505 -2.0676300525665283 -9.371370315551758  738318.7156085912
-0.028039053082466125 -0.6829026341438293 0.028976427391171455 -0.025272754952311516 -2.066938877105713 -9.350200653076172  738318.7156087123
-0.0271049365401268 -0.684002697467804 0.029217412695288658 -0.04834767431020737 -2.069671869277954 -9.340359687805176  738318.7156088275
-0.026608413085341454 -0.684643030166626 0.025804176926612854 -0.010898028500378132 -2.0474092960357666 -9.347367286682129  738318.715608954
-0.06866161525249481 -0.6848132610321045 0.024772057309746742 -0.0776626318693161 -1.044329047203064 -6.711004257202148  738318.7156090535
-0.06839684396982193 -0.6859771609306335 0.0247952863574028 -0.03217047080397606 -1.0394245386123657 -6.741548538208008  738318.7156091605
-0.0681045725941658 -0.6871346235275269 0.02481819875538349 -0.06100764498114586 -1.0495201349258423 -6.703362941741943  738318.715609296
-0.06763866543769836 -0.6884243488311768 0.026742246001958847 -0.048236336559057236 -1.0415005683898926 -6.723662376403809  738318.7156094128
-0.06729605048894882 -0.6895765662193298 0.02686544694006443 -0.06379175931215286 -1.0394929647445679 -6.704349517822266  738318.7156095185
-0.06693251430988312 -0.6907282471656799 0.02698724903166294 -0.06840910762548447 -1.0413135290145874 -6.696303844451904  738318.7156096373
-0.06654101610183716 -0.6918798685073853 0.027114685624837875 -0.051129307597875595 -1.0342484712600708 -6.702815055847168  738318.7156097468
-0.06612610816955566 -0.6930282115936279 0.027245910838246346 -0.06763146072626114 -1.0425455570220947 -6.672966480255127  738318.7156098726
-0.06588991731405258 -0.6940280199050903 0.0232970230281353 -0.056046560406684875 -1.0354870557785034 -6.682455062866211  738318.7156099776
-0.06544031202793121 -0.6951683759689331 0.023199034854769707 -0.049033403396606445 -1.028189778327942 -6.6701436042785645  738318.7156101012
-0.0649668350815773 -0.6963058114051819 0.023096544668078423 -0.051474679261446 -1.0312737226486206 -6.662839412689209  738318.715610238
-0.10856755822896957 -0.6961219906806946 0.0226749237626791 -0.1821555197238922 -0.011632176116108894 -4.537664413452148  738318.71561033
-0.10893749445676804 -0.6973204612731934 0.024977734312415123 -0.18371076881885529 -0.022699866443872452 -4.534268379211426  738318.7156104444
-0.10935670137405396 -0.6984893083572388 0.025012457743287086 -0.1933990865945816 -0.021225297823548317 -4.522984027862549  738318.7156105614
-0.10977154970169067 -0.699653148651123 0.025045987218618393 -0.18615125119686127 -0.011858501471579075 -4.525655746459961  738318.7156106667
-0.1101781502366066 -0.7008089423179626 0.025080112740397453 -0.18160167336463928 -0.02210141345858574 -4.5173211097717285  738318.7156107806
-0.11057727783918381 -0.7019538283348083 0.025117170065641403 -0.1834685504436493 -0.02168429084122181 -4.508073806762695  738318.715610896
-0.1110001802444458 -0.7031133770942688 0.022307636216282845 -0.17400074005126953 -0.01789584755897522 -4.509355545043945  738318.7156110229
-0.11138916015625 -0.7042433023452759 0.02218562737107277 -0.17663705348968506 -0.022329051047563553 -4.501310348510742  738318.7156111276
-0.11177028715610504 -0.7053645253181458 0.02205974981188774 -0.1837620735168457 -0.022113345563411713 -4.493195533752441  738318.7156112897
-0.15185123682022095 -0.7047024369239807 0.021904729306697845 -0.31492167711257935 0.788105845451355 -2.8636474609375  738318.7156113591
-0.15313014388084412 -0.7058196067810059 0.024486646056175232 -0.3091103434562683 0.7885902523994446 -2.8622145652770996  738318.7156114847
-0.1544259786605835 -0.7069608569145203 0.024497976526618004 -0.321695476770401 0.7870411276817322 -2.855470657348633  738318.7156116001
-0.15573187172412872 -0.7080931067466736 0.024507442489266396 -0.320254385471344 0.7919784784317017 -2.853902816772461  738318.7156117044
-0.15704360604286194 -0.7092199325561523 0.02451595850288868 -0.30818048119544983 0.787604570388794 -2.8531973361968994  738318.7156118286
-0.1583634465932846 -0.7103340029716492 0.02452283725142479 -0.3085375428199768 0.7860780358314514 -2.8470096588134766  738318.7156119522
-0.1597045361995697 -0.7114962935447693 0.021143779158592224 -0.3157195448875427 0.7937818765640259 -2.8455417156219482  738318.7156120655
-0.16104570031166077 -0.7125864028930664 0.020962147042155266 -0.3133333921432495 0.7922394275665283 -2.843285322189331  738318.71561219
-0.16238951683044434 -0.7136688828468323 0.02077936939895153 -0.3091917634010315 0.783546507358551 -2.840122699737549  738318.7156122827
-0.16374124586582184 -0.7147385478019714 0.0205965805798769 -0.3173927366733551 0.7817438840866089 -2.834113597869873  738318.7156124067
-0.16509447991847992 -0.7157280445098877 0.023687951266765594 -0.31755003333091736 0.790461540222168 -2.8338804244995117  738318.7156125542
-0.2006167769432068 -0.7143039107322693 0.023631222546100616 -0.34638383984565735 1.4135973453521729 -1.476885199546814  738318.7156126332
-0.2028183937072754 -0.7153922915458679 0.023606080561876297 -0.3476892113685608 1.4017651081085205 -1.4713256359100342  738318.7156127545
-0.20503996312618256 -0.7164676189422607 0.02358107641339302 -0.3521873354911804 1.4007471799850464 -1.4691307544708252  738318.7156128614
-0.20728367567062378 -0.7175347208976746 0.023555461317300797 -0.34819111227989197 1.4052120447158813 -1.4682888984680176  738318.7156129846
-0.20955950021743774 -0.7186386585235596 0.02060474455356598 -0.3412095904350281 1.4024195671081543 -1.4675894975662231  738318.7156130926
-0.2118358165025711 -0.7196828722953796 0.020420990884304047 -0.3490290939807892 1.3967335224151611 -1.4664524793624878  738318.715613212
-0.21413448452949524 -0.7207125425338745 0.02023753710091114 -0.35685214400291443 1.3949402570724487 -1.4636766910552979  738318.7156133433
-0.21645720303058624 -0.7217356562614441 0.02005579322576523 -0.35158175230026245 1.3992795944213867 -1.4625754356384277  738318.7156134469
-0.2187347114086151 -0.7226713299751282 0.02537407912313938 -0.34240514039993286 1.3861442804336548 -1.4618183374404907  738318.7156135842
-0.24447700381278992 -0.7187387943267822 0.025391019880771637 -0.5452053546905518 1.8393343687057495 -0.39911216497421265  738318.7156136713
-0.2474474310874939 -0.7196438312530518 0.025491265580058098 -0.554441511631012 1.8394310474395752 -0.39729222655296326  738318.7156142372
-0.25044670701026917 -0.7205382585525513 0.0255925003439188 -0.5513899922370911 1.8422611951828003 -0.39646750688552856  738318.7156143526
-0.25380703806877136 -0.7215354442596436 0.022819627076387405 -0.5397882461547852 1.839210867881775 -0.39588281512260437  738318.7156144104
-0.2568541467189789 -0.7224020957946777 0.02275952510535717 -0.5406453609466553 1.8320215940475464 -0.396113783121109  738318.7156144565
-0.259926974773407 -0.7232490181922913 0.022702280431985855 -0.5521371364593506 1.8297706842422485 -0.39593347907066345  738318.7156145142
-0.2630281448364258 -0.7240853309631348 0.02264953777194023 -0.5523713231086731 1.8306398391723633 -0.3939763605594635  738318.7156148028
-0.2661556303501129 -0.724914014339447 0.022595686838030815 -0.540789008140564 1.8316638469696045 -0.39160794019699097  738318.7156149066
-0.26924020051956177 -0.7257053852081299 0.026653338223695755 -0.537675678730011 1.822914481163025 -0.3919275104999542  738318.7156150453
-0.2724144160747528 -0.7264971733093262 0.026820512488484383 -0.5446648597717285 1.8166359663009644 -0.39314934611320496  738318.7156151956
-0.27561289072036743 -0.7272729873657227 0.026989653706550598 -0.5511482357978821 1.811068058013916 -0.3922941982746124  738318.715615276
-0.28963330388069153 -0.7225991487503052 0.026977047324180603 -0.622222363948822 2.165212869644165 0.4436916410923004  738318.7156154953
-0.2932468354701996 -0.7232884168624878 0.02409060113132 -0.615792989730835 2.165450096130371 0.44487014412879944  738318.715615807
-0.296855092048645 -0.7239547371864319 0.024064404889941216 -0.6157904863357544 2.163653612136841 0.4433937072753906  738318.7156159802
-0.3004915416240692 -0.7246013879776001 0.024041367694735527 -0.6201356053352356 2.1591811180114746 0.4424148201942444  738318.7156160263
-0.30415746569633484 -0.7252318859100342 0.024020664393901825 -0.6207494735717773 2.154186487197876 0.4410761594772339  738318.7156162111
-0.30785563588142395 -0.7258496284484863 0.023996975272893906 -0.618509829044342 2.151644229888916 0.4420827031135559  738318.7156163611
-0.31156638264656067 -0.7264534831047058 0.02555522508919239 -0.6164153814315796 2.1549746990203857 0.4434432089328766  738318.7156165227
-0.31532713770866394 -0.7270413637161255 0.02561502531170845 -0.6154711246490479 2.156200647354126 0.4424225091934204  738318.7156167651
-0.3191145956516266 -0.7276135683059692 0.02567809633910656 -0.6154290437698364 2.151700735092163 0.442045658826828  738318.7156169036
-0.32293084263801575 -0.728169322013855 0.02574443444609642 -0.6154747605323792 2.144498825073242 0.44198036193847656  738318.7156171586
-0.3268198072910309 -0.7287046313285828 0.022423285990953445 -0.6152079701423645 2.142502784729004 0.4415876269340515  738318.7156173198
-0.3283490538597107 -0.7229425311088562 0.02229762263596058 -0.7236784100532532 2.404338836669922 1.2210661172866821  738318.715617424
-0.3323225975036621 -0.7233379483222961 0.022164564579725266 -0.7220326662063599 2.40238094329834 1.2209892272949219  738318.7156178165
-0.33633148670196533 -0.7237179279327393 0.022032737731933594 -0.7209357619285583 2.39998197555542 1.2199714183807373  738318.7156178623
-0.340375691652298 -0.7240809202194214 0.021901726722717285 -0.7206679582595825 2.395742416381836 1.218084692955017  738318.7156181047
-0.3444308340549469 -0.7244369983673096 0.02662491612136364 -0.7207198739051819 2.3856301307678223 1.2162809371948242  738318.7156181509
-0.348549485206604 -0.724765419960022 0.026761146262288094 -0.7184084057807922 2.384661912918091 1.2150459289550781  738318.7156184985
-0.35270223021507263 -0.7250778675079346 0.026898860931396484 -0.7170854806900024 2.3832802772521973 1.2140949964523315  738318.715618614
-0.3568882942199707 -0.7253739833831787 0.02703848108649254 -0.7166649103164673 2.381287097930908 1.2129024267196655  738318.7156189029
-0.3611198663711548 -0.725644588470459 0.023650310933589935 -0.7159595489501953 2.3771750926971436 1.2112150192260742  738318.7156190064
-0.36537227034568787 -0.7259091138839722 0.023596009239554405 -0.7152645587921143 2.3760993480682373 1.209790825843811  738318.7156191106
-0.36966049671173096 -0.7261560559272766 0.02354268543422222 -0.7127472162246704 2.375153064727783 1.2081074714660645  738318.7156192142
-0.35738545656204224 -0.7202273011207581 0.023485882207751274 -0.8258438110351562 2.4665262699127197 1.774935245513916  738318.7156194624
-0.36150044202804565 -0.7203058004379272 0.023430559784173965 -0.8252490758895874 2.464505910873413 1.7728865146636963  738318.7156195664
-0.36566394567489624 -0.7203770875930786 0.02715064212679863 -0.8233203887939453 2.462669849395752 1.7710694074630737  738318.7156197513
-0.3698556423187256 -0.7204229235649109 0.027299951761960983 -0.8223909139633179 2.45943546295166 1.7707180976867676  738318.7156199011
-0.3740858733654022 -0.7204532027244568 0.027448195964097977 -0.8207536935806274 2.4586024284362793 1.769142746925354  738318.7156200395
-0.3783538043498993 -0.7204675078392029 0.027595756575465202 -0.8190335035324097 2.457010269165039 1.767543077468872  738318.7156200742
-0.382636696100235 -0.7204546332359314 0.02441778965294361 -0.8185915946960449 2.453803062438965 1.7653453350067139  738318.7156202473
-0.3869763910770416 -0.7204341292381287 0.024381738156080246 -0.8179336786270142 2.4501209259033203 1.7626079320907593  738318.7156203743
-0.3913554251194 -0.7203958630561829 0.024344224482774734 -0.8180241584777832 2.4470531940460205 1.761841058731079  738318.7156205014
-0.3957728445529938 -0.7203407287597656 0.02430681884288788 -0.8179025650024414 2.446014642715454 1.7598071098327637  738318.7156206167
-0.400227427482605 -0.7202691435813904 0.024269647896289825 -0.8169907927513123 2.443298578262329 1.7589426040649414  738318.7156209515
-0.2865763008594513 -0.7250819802284241 0.044117920100688934 -0.6668544411659241 1.5014028549194336 2.1988415718078613  738318.7156210553
-0.28642451763153076 -0.7251677513122559 0.04433714970946312 -0.6651968955993652 1.4865500926971436 2.1969070434570312  738318.7156212862
-0.2872677743434906 -0.7251813411712646 0.045302942395210266 -0.6649747490882874 1.4845854043960571 2.195666790008545  738318.7156214017
-0.2878730595111847 -0.7251681685447693 0.046060800552368164 -0.6532430052757263 1.4799692630767822 2.1933789253234863  738318.7156215288
-0.2774110734462738 -0.7258018851280212 0.03718980401754379 -0.6515198349952698 1.3650288581848145 2.1896698474884033  738318.7156216557
-0.2779799699783325 -0.725788414478302 0.03760439530014992 -0.6507589817047119 1.364966869354248 2.1862404346466064  738318.715621771
-0.27866649627685547 -0.7257559299468994 0.03810068219900131 -0.6506885290145874 1.3620998859405518 2.1846210956573486  738318.7156219672
-0.28215131163597107 -0.7233479619026184 0.03870360553264618 -0.5832126140594482 1.618303894996643 2.521109104156494  738318.7156220021
-0.28077176213264465 -0.723435640335083 0.03669402003288269 -0.5723583698272705 1.5986409187316895 2.5183067321777344  738318.7156221176
-0.2813723385334015 -0.7234007120132446 0.03697730228304863 -0.5714256167411804 1.5977094173431396 2.5150656700134277  738318.7156223252
-0.28179746866226196 -0.7232934832572937 0.03711844980716705 -0.5873214602470398 1.5899709463119507 2.5138967037200928  738318.7156224521
-0.28246623277664185 -0.7232879400253296 0.03743770346045494 -0.565632700920105 1.5924627780914307 2.5118744373321533  738318.7156224867
-0.2826254963874817 -0.7232212424278259 0.03743555396795273 -0.5657232999801636 1.5744491815567017 2.5091285705566406  738318.7156226829
-0.27961379289627075 -0.7233551740646362 0.03142842277884483 -0.5633960962295532 1.5477612018585205 2.5068185329437256  738318.71562281
-0.28039076924324036 -0.7232586741447449 0.03139151632785797 -0.5634233355522156 1.5548784732818604 2.504390239715576  738318.7156229226
-0.2804872393608093 -0.7231081128120422 0.031147755682468414 -0.5714357495307922 1.5316473245620728 2.5015320777893066  738318.7156231652
-0.28074151277542114 -0.7229725122451782 0.030970098450779915 -0.5714901685714722 1.5182955265045166 2.4990479946136475  738318.7156235575
-0.28528672456741333 -0.72109454870224 0.032610174268484116 -0.547975480556488 1.8404494524002075 2.882756233215332  738318.7156236848
-0.28574588894844055 -0.7212567329406738 0.032608840614557266 -0.5176540017127991 1.8318854570388794 2.878312826156616  738318.7156237768
-0.28624826669692993 -0.7209879755973816 0.032564349472522736 -0.5290874242782593 1.8219846487045288 2.8758175373077393  738318.7156239846
-0.2866533100605011 -0.7208214402198792 0.03255179524421692 -0.5290210843086243 1.8082499504089355 2.8726484775543213  738318.7156243309
-0.28687694668769836 -0.7206801772117615 0.03258239105343819 -0.5251753926277161 1.7866483926773071 2.8716299533843994  738318.7156245271
-0.2864900231361389 -0.7206689715385437 0.02767932042479515 -0.5204232931137085 1.7754544019699097 2.8695154190063477  738318.7156246314
-0.28717049956321716 -0.7205954194068909 0.027406003326177597 -0.5137454867362976 1.7729930877685547 2.868583917617798  738318.7156247811
-0.28770580887794495 -0.720237135887146 0.027132168412208557 -0.5256739258766174 1.7642186880111694 2.865205764770508  738318.7156248849
-0.28792604804039 -0.7200822234153748 0.026947246864438057 -0.5208684206008911 1.744710087776184 2.862790584564209  738318.7156250469
-0.2878822982311249 -0.7199723720550537 0.0276993028819561 -0.5123779773712158 1.7121883630752563 2.8597371578216553  738318.7156251967
-0.2914643883705139 -0.7188630104064941 0.02758317068219185 -0.5587466955184937 2.05228590965271 3.1197867393493652  738318.7156254118
-0.29201698303222656 -0.7177436947822571 0.02735433354973793 -0.6032714247703552 2.038896322250366 3.117539882659912  738318.7156257003
-0.2921225428581238 -0.7183405160903931 0.027389585971832275 -0.5616998672485352 2.0158283710479736 3.1147704124450684  738318.7156259312
-0.29278746247291565 -0.718191385269165 0.027233421802520752 -0.5613682866096497 2.0134952068328857 3.109903335571289  738318.7156261397
-0.2938113510608673 -0.7184337973594666 0.024547865614295006 -0.5411145687103271 2.019721508026123 3.106472969055176  738318.7156262429
-0.293334424495697 -0.7179898619651794 0.02445601299405098 -0.5474870800971985 1.9746859073638916 3.10459303855896  738318.7156262775
-0.2938706576824188 -0.7177489995956421 0.024203119799494743 -0.5466336011886597 1.9646656513214111 3.102311849594116  738318.7156263241
-0.2948537766933441 -0.7165135145187378 0.023806747049093246 -0.5845122337341309 1.9659150838851929 3.099832057952881  738318.7156266012
-0.2946835458278656 -0.718367874622345 0.026338035240769386 -0.49865201115608215 1.9391673803329468 3.0952160358428955  738318.7156267397
-0.29486531019210815 -0.7172591686248779 0.026259269565343857 -0.5311287045478821 1.9170559644699097 3.091153860092163  738318.7156270054
-0.2981009781360626 -0.7159203290939331 0.026120467111468315 -0.6339258551597595 2.1612162590026855 3.2512388229370117  738318.7156271089
-0.2980722486972809 -0.7156133651733398 0.026184091344475746 -0.631723165512085 2.1319029331207275 3.248199462890625  738318.7156271552
-0.2983637750148773 -0.7156466245651245 0.026219893246889114 -0.6198472380638123 2.111523389816284 3.2449872493743896  738318.7156274432
-0.2992134690284729 -0.7156698703765869 0.022508786991238594 -0.6086130142211914 2.10567045211792 3.240935802459717  738318.7156275243
-0.2992301285266876 -0.715133011341095 0.02233859896659851 -0.6134802103042603 2.079094171524048 3.237982749938965  738318.7156277321
-0.300638347864151 -0.71451735496521 0.021942583844065666 -0.6225634217262268 2.0895190238952637 3.235989570617676  738318.7156279281
-0.30045390129089355 -0.7143115401268005 0.02187144011259079 -0.6165248155593872 2.056452989578247 3.2325541973114014  738318.7156279857
-0.301312655210495 -0.7138480544090271 0.027210237458348274 -0.6167596578598022 2.0529773235321045 3.2297136783599854  738318.7156280549
-0.3017163872718811 -0.7153816819190979 0.027405226603150368 -0.5562536120414734 2.0394561290740967 3.224724292755127  738318.7156282396
-0.30124279856681824 -0.7152009010314941 0.02764406055212021 -0.5505333542823792 1.9992656707763672 3.221536636352539  738318.7156283896
-0.3012939989566803 -0.7151896357536316 0.027823183685541153 -0.5394642353057861 1.9747226238250732 3.217442512512207  738318.7156285283
-0.30172985792160034 -0.715183675289154 0.02344837598502636 -0.5309651494026184 1.9592370986938477 3.2138640880584717  738318.7156288748
-0.30264610052108765 -0.7156837582588196 0.023279637098312378 -0.5088444352149963 1.9590362310409546 3.2095656394958496  738318.7156293131
-0.30305036902427673 -0.7142295241355896 0.023121632635593414 -0.5432500839233398 1.9416344165802002 3.2089788913726807  738318.715629417
-0.30486157536506653 -0.7134676575660706 0.023188140243291855 -0.6206981539726257 2.177711009979248 3.355806589126587  738318.7156296363
-0.3058597445487976 -0.7131303548812866 0.023019229993224144 -0.6196883320808411 2.1762852668762207 3.352907180786133  738318.7156297409
-0.30295807123184204 -0.7146689295768738 0.026968779042363167 -0.5602073669433594 2.0774521827697754 3.348198175430298  738318.7156297982
-0.3043305277824402 -0.7146127223968506 0.026984425261616707 -0.5560243725776672 2.0880606174468994 3.345264434814453  738318.7156302719
-0.30462053418159485 -0.7134992480278015 0.02709364891052246 -0.5774056911468506 2.0689475536346436 3.34334659576416  738318.7156304447
-0.3046727478504181 -0.7134943008422852 0.027281399816274643 -0.5662350058555603 2.046785831451416 3.339695453643799  738318.7156305832
-0.30421319603919983 -0.7131390571594238 0.023558244109153748 -0.5665022134780884 2.0139684677124023 3.3366141319274902  738318.7156307683
-0.30566921830177307 -0.7124586701393127 0.0233527310192585 -0.5756493806838989 2.027570962905884 3.3340978622436523  738318.7156309645
-0.30726537108421326 -0.7120758891105652 0.023451758548617363 -0.5722976326942444 2.296781301498413 3.486020803451538  738318.7156310219
-0.3072504699230194 -0.7119006514549255 0.023484576493501663 -0.5656012892723083 2.271061658859253 3.4829089641571045  738318.7156312714
-0.30786454677581787 -0.7130904793739319 0.023512177169322968 -0.5278882384300232 2.260836124420166 3.4780471324920654  738318.7156314907
-0.3088594675064087 -0.7123516201972961 0.0254968348890543 -0.5382720828056335 2.2579102516174316 3.474381446838379  738318.7156316757
-0.3090344965457916 -0.7131479978561401 0.02564816176891327 -0.5097750425338745 2.238473415374756 3.469116449356079  738318.7156317795
-0.3086071014404297 -0.7128397822380066 0.02585577592253685 -0.5081778168678284 2.201296329498291 3.465996265411377  738318.7156319293
-0.3096714913845062 -0.7114802598953247 0.02582024782896042 -0.5329882502555847 2.200094699859619 3.4633100032806396  738318.7156319871
-0.3092740774154663 -0.7114104628562927 0.02289183810353279 -0.5271225571632385 2.1691462993621826 3.459770679473877  738318.7156320909
-0.3099988102912903 -0.7118067741394043 0.022998066619038582 -0.49248504638671875 2.388981580734253 3.486144781112671  738318.7156323103
-0.310305655002594 -0.7106238007545471 0.022924697026610374 -0.5110088586807251 2.369056224822998 3.4843242168426514  738318.7156324026
-0.31078359484672546 -0.711580753326416 0.02294064499437809 -0.48118457198143005 2.3564047813415527 3.479766368865967  738318.7156325993
-0.31099534034729004 -0.7114637494087219 0.02295784279704094 -0.4758538603782654 2.3375144004821777 3.476991891860962  738318.7156328412
-0.31147629022598267 -0.7106838226318359 0.02409522980451584 -0.48535218834877014 2.3215084075927734 3.4736311435699463  738318.7156329455
-0.3119527995586395 -0.7112442851066589 0.024151461198925972 -0.4637773036956787 2.3100085258483887 3.4673590660095215  738318.7156329913
-0.31235271692276 -0.709962010383606 0.024162692949175835 -0.484301894903183 2.2917320728302 3.4657106399536133  738318.715633026
