% x y z r p yw  738318.7436510253
0.21769285202026367 -0.21822763979434967 0.5039860010147095 -1.6914645433425903 -0.49520063400268555 0.8780423998832703  738318.744055095
0.21825996041297913 -0.21722044050693512 0.5042507648468018 -1.6285362243652344 -0.4258749485015869 0.8720058798789978  738318.7440552453
0.21949154138565063 -0.21520952880382538 0.5036373734474182 -1.4982198476791382 -0.26220375299453735 0.8374804854393005  738318.7440554762
0.22037741541862488 -0.2142929881811142 0.5037975311279297 -1.3955168724060059 -0.23821166157722473 0.8249568343162537  738318.7440556609
0.22205503284931183 -0.21177634596824646 0.5040485858917236 -1.2338396310806274 -0.14060565829277039 0.8040210008621216  738318.7440557647
0.21796217560768127 -0.21434831619262695 0.5057460069656372 -1.2505067586898804 0.1838049292564392 0.7480557560920715  738318.7440560418
0.219693124294281 -0.21084973216056824 0.5062659978866577 -1.0158389806747437 0.33118388056755066 0.7205750942230225  738318.7440564109
0.22086334228515625 -0.21002575755119324 0.5048609375953674 -0.8964288830757141 0.3457135856151581 0.697009801864624  738318.7440565262
0.22088336944580078 -0.20936529338359833 0.5049787163734436 -0.8024845123291016 0.3420780301094055 0.6930688619613647  738318.7440567458
0.22143925726413727 -0.2079775631427765 0.505084753036499 -0.7485603094100952 0.3330705463886261 0.6889960765838623  738318.7440568495
0.22225883603096008 -0.20604607462882996 0.5022489428520203 -0.6335515975952148 0.3323725461959839 0.671942949295044  738318.7440571266
0.2204681634902954 -0.20735499262809753 0.5027562379837036 -0.6304885149002075 0.2920122444629669 0.6573567986488342  738318.7440572651
0.22107279300689697 -0.2029934972524643 0.498911052942276 -0.4650353193283081 0.22044359147548676 0.6416688561439514  738318.7440575334
0.22153452038764954 -0.20194368064403534 0.49873849749565125 -0.4250025153160095 0.21437190473079681 0.6351068019866943  738318.744057672
0.2217259556055069 -0.20087113976478577 0.49834394454956055 -0.3917371928691864 0.21018871665000916 0.6274502873420715  738318.7440577875
0.22205288708209991 -0.19964599609375 0.49818623065948486 -0.334085613489151 0.2208757847547531 0.6200507283210754  738318.7440579031
0.22308211028575897 -0.19827629625797272 0.4979521334171295 -0.18890492618083954 0.16695965826511383 0.6098568439483643  738318.744058076
0.22021447122097015 -0.2011248618364334 0.4975703954696655 0.030876455828547478 0.2296423614025116 0.5863929390907288  738318.7440582261
0.2206490933895111 -0.19795173406600952 0.4971217215061188 0.24257692694664001 0.24847660958766937 0.5727781057357788  738318.7440585493
0.22124040126800537 -0.1962149292230606 0.4959813356399536 0.2736654281616211 0.18057216703891754 0.5511135458946228  738318.7440587461
0.22150030732154846 -0.19518320262432098 0.4958338439464569 0.29047295451164246 0.12296774238348007 0.5448409914970398  738318.7440589423
0.21902023255825043 -0.1980266571044922 0.49590662121772766 0.3173155188560486 0.1076282486319542 0.5150517821311951  738318.7440591039
0.21920639276504517 -0.1961798518896103 0.4958423674106598 0.26087427139282227 0.0012106590438634157 0.5006382465362549  738318.7440594041
0.22018340229988098 -0.19604220986366272 0.4958666265010834 0.2020377516746521 -0.08611101657152176 0.47749122977256775  738318.7440595657
0.2204284369945526 -0.19435633718967438 0.49559250473976135 0.14341332018375397 -0.18655145168304443 0.46962183713912964  738318.7440597623
0.22060859203338623 -0.1939096748828888 0.49573424458503723 0.12370704859495163 -0.28620803356170654 0.4646918475627899  738318.7440597819
0.22074565291404724 -0.1931055188179016 0.49666401743888855 0.09429571777582169 -0.28639301657676697 0.46220457553863525  738318.7440599436
0.22088326513767242 -0.19231359660625458 0.4967847168445587 0.08076700568199158 -0.2946753203868866 0.4554179310798645  738318.744060059
0.21961960196495056 -0.1953413188457489 0.4975723922252655 0.07330289483070374 -0.42176374793052673 0.4609876871109009  738318.7440603013
0.22009272873401642 -0.19318465888500214 0.49742913246154785 -0.09016156941652298 -0.5639984607696533 0.4306546747684479  738318.7440606939
0.22047291696071625 -0.19166605174541473 0.49781641364097595 -0.2299642115831375 -0.578186571598053 0.4111568331718445  738318.7440609247
0.2194618582725525 -0.19215050339698792 0.49902164936065674 -0.30272001028060913 -0.5728042721748352 0.39293354749679565  738318.7440610401
0.21981985867023468 -0.19160306453704834 0.4993044137954712 -0.3848464787006378 -0.5594959259033203 0.3732202649116516  738318.7440611556
0.21944411098957062 -0.1927311271429062 0.500605046749115 -0.5605166554450989 -0.7998080849647522 0.38527753949165344  738318.7440613287
0.21995557844638824 -0.19142378866672516 0.5009362697601318 -0.6444652080535889 -0.8319912552833557 0.37103134393692017  738318.7440617674
0.22049489617347717 -0.1900670975446701 0.5016642212867737 -0.7296151518821716 -0.8515496850013733 0.32864895462989807  738318.7440618366
0.22095666825771332 -0.1886090487241745 0.5019674301147461 -0.7833102345466614 -0.8406088352203369 0.29777029156684875  738318.7440619636
0.2212253212928772 -0.18802107870578766 0.5023176670074463 -0.8096423745155334 -0.8176456093788147 0.28316041827201843  738318.7440622251
0.22001756727695465 -0.19008447229862213 0.5035682320594788 -0.7365758419036865 -0.7101277112960815 0.24220708012580872  738318.7440624678
0.22127677500247955 -0.1871156394481659 0.5023184418678284 -0.8421247601509094 -0.6168317198753357 0.18252845108509064  738318.7440630445
0.2218746542930603 -0.18596172332763672 0.5017813444137573 -0.889166533946991 -0.6176577210426331 0.1726788431406021  738318.7440633706
0.22229930758476257 -0.18499664962291718 0.5019843578338623 -0.9370646476745605 -0.6111469268798828 0.17003612220287323  738318.7440634167
0.22265027463436127 -0.18444931507110596 0.5021898746490479 -0.9805055260658264 -0.6036894917488098 0.16952979564666748  738318.7440634401
0.22315001487731934 -0.18372201919555664 0.5023931264877319 -0.9865005016326904 -0.6206252574920654 0.16486211121082306  738318.7440637057
0.2232685685157776 -0.18297156691551208 0.5008320212364197 -1.0081493854522705 -0.6141085028648376 0.15485523641109467  738318.7440638673
0.2233642339706421 -0.18516330420970917 0.501431405544281 -1.0870298147201538 -0.7743645906448364 0.16471099853515625  738318.7440642138
0.22424699366092682 -0.18349185585975647 0.5016574859619141 -1.0075565576553345 -0.6549543738365173 0.165325328707695  738318.7440644329
0.22533972561359406 -0.1823662519454956 0.4999220371246338 -0.9062138795852661 -0.5767309665679932 0.17307241261005402  738318.7440644675
0.2258678674697876 -0.18149682879447937 0.4999344050884247 -0.9031602144241333 -0.4888750910758972 0.1754441261291504  738318.7440645945
0.22631050646305084 -0.17988017201423645 0.4999620318412781 -0.8029085397720337 -0.2925815284252167 0.1663024127483368  738318.7440646638
0.22737127542495728 -0.17804908752441406 0.4999970495700836 -0.6749454140663147 -0.05584181100130081 0.160217747092247  738318.7440648831
0.22522883117198944 -0.18134881556034088 0.5006949305534363 -0.43759119510650635 0.07170046120882034 0.17716701328754425  738318.7440651105
0.22661805152893066 -0.1783570647239685 0.49675610661506653 -0.22588792443275452 0.27099570631980896 0.19448934495449066  738318.7440655607
0.22779473662376404 -0.17695903778076172 0.49654901027679443 -0.19351325929164886 0.2617080807685852 0.19956745207309723  738318.7440656653
0.2285483479499817 -0.17532409727573395 0.4970279335975647 -0.27065566182136536 0.2152516096830368 0.22627796232700348  738318.7440658387
0.22899508476257324 -0.1744663268327713 0.4970064163208008 -0.33100375533103943 0.22018146514892578 0.23813700675964355  738318.7440659539
0.22741177678108215 -0.1779789924621582 0.4977087080478668 -0.2603608965873718 0.29570239782333374 0.2375347763299942  738318.7440661155
0.22788399457931519 -0.17676526308059692 0.4954710900783539 -0.3470979630947113 0.3810575604438782 0.2436552494764328  738318.7440663463
0.22847488522529602 -0.1761227548122406 0.49541690945625305 -0.3959197700023651 0.43432316184043884 0.24659623205661774  738318.744066508
0.2289479672908783 -0.1745424121618271 0.4948118329048157 -0.44316840171813965 0.4396975636482239 0.2674611806869507  738318.7440666935
0.2288701981306076 -0.17406365275382996 0.49479159712791443 -0.4344920516014099 0.4394744634628296 0.27284276485443115  738318.744066705
0.2292913794517517 -0.1733764261007309 0.49478858709335327 -0.4197981655597687 0.4619936943054199 0.28233832120895386  738318.7440667306
0.22754067182540894 -0.17450183629989624 0.49625658988952637 -0.38778090476989746 0.6927970051765442 0.24636442959308624  738318.744066996
0.22795981168746948 -0.17243237793445587 0.49676841497421265 -0.3675280213356018 0.6545803546905518 0.2772858440876007  738318.7440672963
0.22824972867965698 -0.1709613800048828 0.4955052137374878 -0.4315840005874634 0.5829091668128967 0.3094979226589203  738318.7440674235
0.22813904285430908 -0.16968265175819397 0.4958154857158661 -0.523847758769989 0.5239593982696533 0.31752732396125793  738318.7440675735
0.22826503217220306 -0.16815254092216492 0.4949544668197632 -0.660004198551178 0.45283809304237366 0.32941386103630066  738318.7440677464
0.2269921749830246 -0.16824348270893097 0.49607452750205994 -0.824167013168335 0.3219381868839264 0.3177356421947479  738318.744067976
0.22671560943126678 -0.16778823733329773 0.49623236060142517 -0.7880808711051941 0.2824035584926605 0.3229660093784332  738318.7440680008
0.2262241393327713 -0.16659632325172424 0.4966674745082855 -0.7330063581466675 0.2232702523469925 0.31313368678092957  738318.7440682878
0.22618520259857178 -0.16495400667190552 0.49350664019584656 -0.7343224287033081 0.07845887541770935 0.3247479200363159  738318.7440685071
0.22583742439746857 -0.16423892974853516 0.49353060126304626 -0.6910982728004456 0.041388217359781265 0.336345911026001  738318.7440685071
0.22535228729248047 -0.16512681543827057 0.4944240152835846 -0.7734379172325134 -0.163432776927948 0.3181252181529999  738318.744068738
0.22541117668151855 -0.162405863404274 0.49497219920158386 -0.8721045851707458 -0.3128904700279236 0.3049657642841339  738318.7440689804
0.22534112632274628 -0.1614592969417572 0.496030330657959 -0.8608243465423584 -0.40735211968421936 0.30906614661216736  738318.7440690382
0.2253303825855255 -0.16042199730873108 0.4962468445301056 -0.8634428381919861 -0.3937280774116516 0.3078698217868805  738318.7440690659
0.2253527194261551 -0.1598721593618393 0.496482789516449 -0.8502873778343201 -0.39778777956962585 0.31166619062423706  738318.7440692466
0.2246229499578476 -0.16123844683170319 0.4974712133407593 -0.7905188202857971 -0.42521342635154724 0.29300546646118164  738318.7440693043
0.22459658980369568 -0.15965327620506287 0.49735087156295776 -0.743706464767456 -0.40811941027641296 0.28852152824401855  738318.7440696392
0.22463653981685638 -0.15753298997879028 0.49795541167259216 -0.7040717601776123 -0.3951076567173004 0.28758808970451355  738318.7440698122
0.22482748329639435 -0.15581059455871582 0.49931421875953674 -0.6398594379425049 -0.3951513469219208 0.29762622714042664  738318.7440698699
0.22479279339313507 -0.15495185554027557 0.4997277855873108 -0.6395435333251953 -0.40935757756233215 0.29393863677978516  738318.7440699276
0.22521759569644928 -0.15411311388015747 0.5001615285873413 -0.6343558430671692 -0.3962130546569824 0.2915162146091461  738318.7440700546
0.22387459874153137 -0.1550893932580948 0.5014923214912415 -0.6477044820785522 -0.3740551173686981 0.2839218080043793  738318.744070228
0.22415311634540558 -0.15149028599262238 0.5035065412521362 -0.47791433334350586 -0.3068430721759796 0.27536526322364807  738318.7440705511
0.22471672296524048 -0.15094003081321716 0.5043442249298096 -0.3285740911960602 -0.21644705533981323 0.26193252205848694  738318.7440706781
0.22474870085716248 -0.14969542622566223 0.5048442482948303 -0.2586324214935303 -0.14595729112625122 0.2466309666633606  738318.744070909
0.2247753143310547 -0.14839790761470795 0.5053148865699768 -0.19079439342021942 -0.07768979668617249 0.24285371601581573  738318.7440710672
0.22496986389160156 -0.14877638220787048 0.5047579407691956 0.007745114155113697 -0.12202712893486023 0.26574769616127014  738318.7440712518
0.22514495253562927 -0.1470816433429718 0.5052562355995178 0.07741628587245941 -0.04679270088672638 0.260784387588501  738318.7440715693
0.2253183126449585 -0.1461932510137558 0.5041265487670898 0.0889233872294426 -0.006496463902294636 0.2524697184562683  738318.7440717883
0.22556360065937042 -0.14537151157855988 0.5043617486953735 0.1106610968708992 0.08298955112695694 0.23514825105667114  738318.7440719617
0.2255110889673233 -0.1439526379108429 0.501119077205658 0.10962390899658203 0.1529970020055771 0.22238938510417938  738318.7440721923
0.2258002758026123 -0.14319926500320435 0.5010089874267578 0.11359160393476486 0.14720453321933746 0.22383470833301544  738318.744072377
0.22384385764598846 -0.14459636807441711 0.5015159845352173 0.10279408097267151 0.2472248524427414 0.2212945967912674  738318.7440726967
0.2237703949213028 -0.1425509750843048 0.5009700655937195 0.09695839881896973 0.32681575417518616 0.21329839527606964  738318.7440730545
0.2241901308298111 -0.14127540588378906 0.5006301999092102 0.11309339851140976 0.3546912670135498 0.20785048604011536  738318.7440732276
0.22419393062591553 -0.13949069380760193 0.49926313757896423 0.09616031497716904 0.33180567622184753 0.21716713905334473  738318.7440733546
0.22253359854221344 -0.13847102224826813 0.49926695227622986 0.02498817816376686 0.2588517367839813 0.22077473998069763  738318.7440737026
0.22264499962329865 -0.13639990985393524 0.49696001410484314 -0.00978826079517603 0.20994645357131958 0.21655786037445068  738318.7440740371
0.22297325730323792 -0.13578219711780548 0.4967547059059143 0.002857823157683015 0.1476849913597107 0.2165491282939911  738318.7440741525
0.22287634015083313 -0.13431622087955475 0.4957658350467682 -0.028103254735469818 0.10054481774568558 0.23038029670715332  738318.744074268
0.22277480363845825 -0.13289572298526764 0.495427668094635 -0.03653696924448013 0.030735675245523453 0.23421816527843475  738318.7440743719
0.22235694527626038 -0.1316113919019699 0.49705013632774353 -0.07660564035177231 0.03937143087387085 0.23158752918243408  738318.744074649
0.2210356593132019 -0.13465620577335358 0.4976712167263031 0.011556098237633705 -0.03063664585351944 0.2318795770406723  738318.7440747644
0.22090791165828705 -0.13194265961647034 0.4970782995223999 -0.04779273271560669 -0.15191470086574554 0.2310880720615387  738318.7440750762
0.2219463586807251 -0.13202203810214996 0.4972206652164459 -0.07840409874916077 -0.20594161748886108 0.23177151381969452  738318.7440753187
0.22188067436218262 -0.1314420849084854 0.4973963797092438 -0.09362243115901947 -0.23630529642105103 0.23050457239151  738318.7440754687
0.2219153791666031 -0.13017593324184418 0.49640336632728577 -0.1526155322790146 -0.23567889630794525 0.22259214520454407  738318.7440756996
0.2194463610649109 -0.1310032308101654 0.49751144647598267 -0.23654256761074066 -0.16819816827774048 0.18114688992500305  738318.7440759535
0.2192392200231552 -0.12947189807891846 0.49895891547203064 -0.34154045581817627 -0.13497111201286316 0.18643876910209656  738318.7440762421
0.21920420229434967 -0.12885388731956482 0.49932074546813965 -0.36877572536468506 -0.10673949122428894 0.18849492073059082  738318.7440764153
0.2191392183303833 -0.12759903073310852 0.5000733137130737 -0.38337981700897217 -0.011637868359684944 0.18231113255023956  738318.7440766
0.21935191750526428 -0.12922844290733337 0.5004367828369141 -0.32689782977104187 -0.04574974253773689 0.18391361832618713  738318.7440768193
0.2176591455936432 -0.12986330687999725 0.5013238787651062 -0.38462504744529724 -0.0594368577003479 0.17513251304626465  738318.7440770617
0.2167031168937683 -0.12907853722572327 0.5000995397567749 -0.34147268533706665 -0.07364173233509064 0.17645995318889618  738318.7440772925
0.2168266922235489 -0.12857675552368164 0.5002889633178711 -0.30469492077827454 -0.05076441913843155 0.1826423853635788  738318.7440775234
0.2170431911945343 -0.12779869139194489 0.5004637241363525 -0.2669436037540436 -0.05521271005272865 0.18013110756874084  738318.7440776966
0.21676687896251678 -0.12746906280517578 0.5006409287452698 -0.22973378002643585 -0.03772939369082451 0.17817510664463043  738318.7440779735
0.21670536696910858 -0.12689334154129028 0.49900615215301514 -0.2306155562400818 -0.011898470111191273 0.17076601088047028  738318.7440782045
0.21694013476371765 -0.125902459025383 0.4991242587566376 -0.25981441140174866 -0.01844489946961403 0.18855346739292145  738318.7440783869
0.21689333021640778 -0.12531131505966187 0.4991844892501831 -0.2772478461265564 0.017182227224111557 0.19822874665260315  738318.7440784217
0.21560311317443848 -0.12657949328422546 0.4989122748374939 -0.24937257170677185 -0.23822127282619476 0.22665423154830933  738318.7440785834
0.21531523764133453 -0.1250031292438507 0.4991743862628937 -0.32104435563087463 -0.3169406056404114 0.22104451060295105  738318.7440789763
0.21563692390918732 -0.1235327422618866 0.498521089553833 -0.3600366711616516 -0.3389860987663269 0.21367409825325012  738318.7440789763
0.2157503217458725 -0.1231682077050209 0.49864664673805237 -0.33915916085243225 -0.37365782260894775 0.21375976502895355  738318.7440791952
0.2158503383398056 -0.12186634540557861 0.4989422857761383 -0.39351826906204224 -0.3402266502380371 0.20164135098457336  738318.7440793685
0.21548819541931152 -0.12152892351150513 0.4974668622016907 -0.41336095333099365 -0.3387451469898224 0.20514646172523499  738318.7440794525
0.21351823210716248 -0.12342958152294159 0.49811920523643494 -0.4197560250759125 -0.3587869703769684 0.17634013295173645  738318.7440795605
0.21362392604351044 -0.12228162586688995 0.49831584095954895 -0.46375489234924316 -0.25160443782806396 0.16714443266391754  738318.7440796645
0.21359996497631073 -0.1218402311205864 0.4990129768848419 -0.5006657242774963 -0.21496248245239258 0.1551487147808075  738318.7440798376
0.21352463960647583 -0.12133531272411346 0.4991719424724579 -0.5236698985099792 -0.16822299361228943 0.15249641239643097  738318.7440800107
0.2135646939277649 -0.12066582590341568 0.49934065341949463 -0.5354499220848083 -0.1519680619239807 0.15771633386611938  738318.7440801724
0.21366895735263824 -0.11948569118976593 0.4998171925544739 -0.6096948385238647 -0.136210635304451 0.15053872764110565  738318.7440804032
0.2112979143857956 -0.1192062720656395 0.5010377764701843 -0.7136996388435364 -0.09222997725009918 0.10839544236660004  738318.7440806393
0.21151037514209747 -0.12093684077262878 0.5004198551177979 -0.5650048851966858 -0.044242002069950104 0.10621850192546844  738318.7440810202
0.21148909628391266 -0.11992985010147095 0.5008224844932556 -0.4334116280078888 0.04971613362431526 0.09833209216594696  738318.7440811588
0.21162547171115875 -0.11896990984678268 0.5011716485023499 -0.35150814056396484 0.1778116226196289 0.08704569190740585  738318.7440812169
0.21135655045509338 -0.11889952421188354 0.5011709928512573 -0.35150814056396484 0.1778116226196289 0.08704569190740585  738318.7440814589
0.21138039231300354 -0.11776258051395416 0.501469612121582 -0.37186896800994873 0.2416965365409851 0.06567893922328949  738318.7440815977
0.20813517272472382 -0.11805371195077896 0.5010743737220764 -0.4410376250743866 0.44549891352653503 0.0016400276217609644  738318.7440818611
0.20793558657169342 -0.11584331095218658 0.5012986660003662 -0.6441362500190735 0.25457561016082764 -0.018364829942584038  738318.7440820343
0.20765185356140137 -0.11468780040740967 0.49990496039390564 -0.6679874658584595 0.17622825503349304 -0.03934453800320625  738318.7440822652
0.20752067863941193 -0.11406951397657394 0.4998200833797455 -0.6658624410629272 0.106045201420784 -0.04386232793331146  738318.7440823806
0.2075633853673935 -0.11279761791229248 0.49858054518699646 -0.6445764303207397 -0.014129197224974632 -0.05195463076233864  738318.7440825538
0.207442507147789 -0.11285297572612762 0.49858081340789795 -0.6445764303207397 -0.012131869792938232 -0.0514279268682003  738318.7440827384
0.20430344343185425 -0.11126432567834854 0.49801167845726013 -0.6836682558059692 -0.14690524339675903 -0.09875141084194183  738318.7440831063
0.20214109122753143 -0.10852418094873428 0.49776798486709595 -0.6703814268112183 -0.11957116425037384 -0.09221651405096054  738318.7440832679
0.20174306631088257 -0.10784371197223663 0.4976655840873718 -0.6318737864494324 -0.1512843370437622 -0.09284678846597672  738318.7440833255
0.20160195231437683 -0.10714174062013626 0.4958217740058899 -0.5958746075630188 -0.1561339646577835 -0.08308733254671097  738318.7440834872
0.19920513033866882 -0.106733538210392 0.4960322082042694 -0.6392051577568054 -0.10359711199998856 -0.03812877833843231  738318.7440836603
0.19880874454975128 -0.10515610128641129 0.49573221802711487 -0.5266607403755188 -0.03409387171268463 -0.03557800129055977  738318.7440839374
0.19853124022483826 -0.10439350455999374 0.49419668316841125 -0.42606914043426514 -0.048102643340826035 -0.03673652559518814  738318.7440839685
0.19828006625175476 -0.10354088991880417 0.49404487013816833 -0.29668936133384705 -0.10534060001373291 -0.037702638655900955  738318.7440841222
0.1980302631855011 -0.10268197953701019 0.4939199388027191 -0.22773154079914093 -0.1215951144695282 -0.0329483337700367  738318.7440842954
0.1978037804365158 -0.10259145498275757 0.49347251653671265 -0.02467820979654789 -0.25284212827682495 -0.027523281052708626  738318.7440844569
0.1976325511932373 -0.10178795456886292 0.49339452385902405 0.04376380890607834 -0.29439350962638855 -0.03546413034200668  738318.7440846188
0.1975301206111908 -0.09970862418413162 0.493319571018219 0.09663964062929153 -0.4288221001625061 -0.0413491316139698  738318.7440847917
0.19503352046012878 -0.10156704485416412 0.49422967433929443 0.19507764279842377 -0.5309286713600159 -0.045546066015958786  738318.7440852188
0.19407743215560913 -0.09939009696245193 0.4945754110813141 0.14368242025375366 -0.6299510598182678 -0.0431094653904438  738318.7440853603
0.19348739087581635 -0.09841573983430862 0.4948183596134186 0.10971058160066605 -0.6229609847068787 -0.05389608442783356  738318.744085568
0.193861722946167 -0.09771712124347687 0.4950528144836426 0.11008880287408829 -0.661674976348877 -0.04730834811925888  738318.7440856373
0.19312696158885956 -0.09700161218643188 0.49535998702049255 0.08208275586366653 -0.698617160320282 -0.05029887706041336  738318.7440858565
0.19312548637390137 -0.09635309875011444 0.4956721365451813 0.038745708763599396 -0.6992413401603699 -0.06266552209854126  738318.7440859835
0.19021260738372803 -0.09844333678483963 0.496721088886261 0.08767572790384293 -0.4417698383331299 -0.08794712275266647  738318.7440861452
0.18907517194747925 -0.09565392881631851 0.4986911714076996 0.289518803358078 -0.3703472316265106 -0.10061518102884293  738318.7440866672
0.1885146051645279 -0.09531844407320023 0.4990883469581604 0.3128771483898163 -0.3858444392681122 -0.1036209687590599  738318.7440868865
0.18833287060260773 -0.09458167105913162 0.49849849939346313 0.3771485388278961 -0.38477712869644165 -0.11414167284965515  738318.7440870597
0.18807831406593323 -0.0939469113945961 0.49883386492729187 0.44348856806755066 -0.33799105882644653 -0.11187700182199478  738318.7440871868
0.18825924396514893 -0.09284556657075882 0.4994716942310333 0.48108649253845215 -0.40798714756965637 -0.12733609974384308  738318.744087406
0.18799887597560883 -0.09239465743303299 0.49947115778923035 0.4773179292678833 -0.45306652784347534 -0.12304583936929703  738318.744087533
0.18609686195850372 -0.0945972427725792 0.500594437122345 0.46326807141304016 -0.5498411059379578 -0.11497316509485245  738318.744087787
0.18546995520591736 -0.09305611252784729 0.5020661950111389 0.3766268789768219 -0.5444067120552063 -0.1374366134405136  738318.7440879602
0.18527863919734955 -0.09255705028772354 0.5023305416107178 0.3495745360851288 -0.5533981323242188 -0.14652085304260254  738318.7440880525
0.1849246770143509 -0.09174768626689911 0.5025798082351685 0.26580047607421875 -0.5442247986793518 -0.1706954836845398  738318.7440882487
0.1847456991672516 -0.0912485346198082 0.5028265118598938 0.2002621442079544 -0.5354675650596619 -0.17351916432380676  738318.744088468
0.18451613187789917 -0.09120626002550125 0.5018541216850281 0.1785971224308014 -0.5586532354354858 -0.17103612422943115  738318.7440886993
0.18256083130836487 -0.09375306963920593 0.5028213262557983 0.20283792912960052 -0.43370747566223145 -0.20732331275939941  738318.7440887684
0.18235553801059723 -0.09335962682962418 0.5030176639556885 0.1509457230567932 -0.4655042588710785 -0.2137884497642517  738318.7440889992
0.1821029931306839 -0.09275495260953903 0.5028883814811707 0.01648564822971821 -0.5213609933853149 -0.249827042222023  738318.7440893458
0.18207129836082458 -0.09260310232639313 0.5031836628913879 -0.04780181497335434 -0.6051563024520874 -0.262317031621933  738318.744089392
0.181939497590065 -0.09231271594762802 0.5033431053161621 -0.07654975354671478 -0.6201830506324768 -0.26661041378974915  738318.7440895764
0.181854709982872 -0.09179726243019104 0.5048849582672119 -0.15201343595981598 -0.6232276558876038 -0.26637762784957886  738318.7440897612
0.1817396879196167 -0.09151072055101395 0.5051318407058716 -0.21697360277175903 -0.6459944248199463 -0.2602629065513611  738318.7440899678
0.18175087869167328 -0.09112028777599335 0.505381166934967 -0.28646355867385864 -0.6565713882446289 -0.27645689249038696  738318.7440899875
0.18063829839229584 -0.09412318468093872 0.5062409043312073 -0.2974613308906555 -0.598054826259613 -0.29532167315483093  738318.7440901527
0.18037307262420654 -0.09363416582345963 0.5054343342781067 -0.40472280979156494 -0.6035590767860413 -0.2993176281452179  738318.7440905336
0.18024997413158417 -0.09309887140989304 0.5058776140213013 -0.4957619905471802 -0.5983347296714783 -0.30075231194496155  738318.7440907414
0.17992493510246277 -0.09278969466686249 0.505664587020874 -0.5237219333648682 -0.5307988524436951 -0.29530081152915955  738318.7440908684
0.17966020107269287 -0.09209074079990387 0.505989670753479 -0.5884130597114563 -0.48716941475868225 -0.3215324878692627  738318.7440911224
0.17999936640262604 -0.09171751886606216 0.5061400532722473 -0.6248194575309753 -0.41468530893325806 -0.3131265640258789  738318.7440912956
0.17992201447486877 -0.09149051457643509 0.503500759601593 -0.6080940961837769 -0.3190966844558716 -0.31078964471817017  738318.7440914572
0.17967402935028076 -0.0940585732460022 0.503969132900238 -0.5144952535629272 -0.258680522441864 -0.35366636514663696  738318.7440917342
0.17817454040050507 -0.09402251988649368 0.5039591789245605 -0.4000459909439087 -0.08883777260780334 -0.3452567458152771  738318.7440919535
0.17812614142894745 -0.09370866417884827 0.5039416551589966 -0.42444175481796265 -0.05796979367733002 -0.33442696928977966  738318.744092162
0.17803306877613068 -0.09305982291698456 0.5038744807243347 -0.44332394003868103 -0.03995669633150101 -0.30691108107566833  738318.7440923814
0.17763884365558624 -0.09455376863479614 0.5044683218002319 -0.5460318326950073 0.09728983789682388 -0.34623390436172485  738318.7440926122
0.17770002782344818 -0.09375391155481339 0.5023708343505859 -0.6909210085868835 0.13674750924110413 -0.325700581073761  738318.7440927392
0.1776193231344223 -0.09341359883546829 0.5023484230041504 -0.677586555480957 0.19442114233970642 -0.3124801814556122  738318.7440929469
0.1775357723236084 -0.09306135028600693 0.5023436546325684 -0.7208299040794373 0.19658048450946808 -0.3010587692260742  738318.7440931086
0.17852246761322021 -0.09270578622817993 0.5014485120773315 -0.728840708732605 0.14732812345027924 -0.2928391695022583  738318.7440932239
0.17842765152454376 -0.09515193104743958 0.5020709037780762 -0.7301921844482422 0.2659617066383362 -0.337759405374527  738318.744093432
0.17822757363319397 -0.09423533827066422 0.5009309649467468 -0.7677164077758789 0.2143891602754593 -0.29991909861564636  738318.7440936167
0.17793098092079163 -0.09397004544734955 0.5008901357650757 -0.8030176162719727 0.21213337779045105 -0.2919774055480957  738318.7440938706
0.17782887816429138 -0.09359361231327057 0.5008546113967896 -0.8361519575119019 0.21489091217517853 -0.27583977580070496  738318.7440939746
0.1783057600259781 -0.0922430008649826 0.5008261203765869 -1.0020071268081665 0.181941956281662 -0.2836081385612488  738318.74409409
0.17789332568645477 -0.09134823083877563 0.500708281993866 -1.0892233848571777 0.19599086046218872 -0.2643490731716156  738318.7440943208
0.177755206823349 -0.09115887433290482 0.5006384253501892 -1.1322873830795288 0.2358764111995697 -0.25122174620628357  738318.744094494
0.17764891684055328 -0.09067276865243912 0.5005630254745483 -1.129547357559204 0.26995113492012024 -0.23560380935668945  738318.7440946157
0.18022732436656952 -0.09026888012886047 0.5018796324729919 -1.3528660535812378 0.005666874349117279 -0.15480518341064453  738318.7440947081
0.1798478215932846 -0.08937156945466995 0.5026894211769104 -1.257454514503479 0.03252581134438515 -0.13703088462352753  738318.7440948467
0.17985102534294128 -0.08799423277378082 0.5029099583625793 -1.1405755281448364 0.11311489343643188 -0.11965984106063843  738318.744094962
0.18048574030399323 -0.09001738578081131 0.5013227462768555 -1.0392985343933105 0.126094251871109 -0.07281573116779327  738318.7440952391
0.18057258427143097 -0.0887298658490181 0.501460611820221 -0.9540627598762512 0.3186822831630707 -0.04596085846424103  738318.7440955739
0.18063917756080627 -0.08732134103775024 0.5016492009162903 -0.8425524234771729 0.4397372007369995 -0.042544785887002945  738318.7440956369
0.1809055507183075 -0.08634687960147858 0.5006382465362549 -0.8105559945106506 0.5008466839790344 -0.02834419347345829  738318.7440958562
0.18044181168079376 -0.08526583760976791 0.500728964805603 -0.741227924823761 0.6375879049301147 -0.03134455531835556  738318.7440960293
0.18052755296230316 -0.08462665230035782 0.5007793307304382 -0.6564673781394958 0.7573146820068359 -0.021352171897888184  738318.744096168
0.18046388030052185 -0.08384767174720764 0.5019993782043457 -0.6038651466369629 0.8491466641426086 -0.02733275666832924  738318.7440963757
0.1804368942975998 -0.0828278586268425 0.5021145939826965 -0.5524500012397766 0.8753060102462769 -0.03829893842339516  738318.7440966642
0.17942127585411072 -0.08309207111597061 0.5028419494628906 -0.25562870502471924 1.1157565116882324 -0.06068946793675423  738318.7440968374
0.17924949526786804 -0.08232151716947556 0.5029906630516052 -0.1774328649044037 1.1710761785507202 -0.06429809331893921  738318.744096914
0.1790132224559784 -0.08189553022384644 0.5032678842544556 -0.07166934758424759 1.1259806156158447 -0.08889463543891907  738318.7440969385
0.17853058874607086 -0.08028069138526917 0.5041151642799377 -0.036333125084638596 1.1085151433944702 -0.0912027433514595  738318.744097158
0.17802847921848297 -0.08083292096853256 0.5039914846420288 -0.029655536636710167 1.1606167554855347 -0.14904241263866425  738318.7440975504
0.17873333394527435 -0.07930266112089157 0.504195511341095 0.008648712188005447 1.111369013786316 -0.17749235033988953  738318.7440980714
0.17815276980400085 -0.07820368558168411 0.5044056177139282 0.12161649018526077 1.1340363025665283 -0.19244001805782318  738318.7440981406
0.17716790735721588 -0.07742882519960403 0.50197833776474 0.19045870006084442 1.1460044384002686 -0.2063673436641693  738318.7440982676
0.17698876559734344 -0.07670453190803528 0.5019350051879883 0.2597080171108246 1.1843452453613281 -0.2224937081336975  738318.7440984985
0.17586910724639893 -0.07748885452747345 0.5026159286499023 0.2363554835319519 1.3238545656204224 -0.2714340388774872  738318.7440986256
0.17496047914028168 -0.07715138047933578 0.5023185014724731 0.26063016057014465 1.2579373121261597 -0.28910788893699646  738318.7440991182
0.1747814267873764 -0.07648614048957825 0.5022770166397095 0.25022831559181213 1.2064509391784668 -0.2973032295703888  738318.7440994068
0.17407341301441193 -0.07590100914239883 0.5022194981575012 0.22542239725589752 1.1538012027740479 -0.3216463029384613  738318.7440995799
0.17307598888874054 -0.07446013391017914 0.5020707249641418 0.19593513011932373 0.9901968240737915 -0.35266461968421936  738318.7440996954
0.1724628061056137 -0.07380577176809311 0.5035120844841003 0.18200473487377167 0.9333638548851013 -0.3823627233505249  738318.7440998685
0.17255592346191406 -0.07371794432401657 0.5035204291343689 0.15853390097618103 0.8541160821914673 -0.394089937210083  738318.7441000993
0.17170566320419312 -0.07404963672161102 0.5038668513298035 0.164617657661438 0.7054110169410706 -0.4458337724208832  738318.7441000993
0.16970616579055786 -0.07188092172145844 0.5036923885345459 0.16562750935554504 0.48818621039390564 -0.505454957485199  738318.7441005423
0.169030100107193 -0.0713648870587349 0.5037568807601929 0.1727953851222992 0.372039794921875 -0.5214775204658508  738318.7441007616
0.16838179528713226 -0.07079897075891495 0.5038271546363831 0.18841002881526947 0.2640747129917145 -0.5301021337509155  738318.7441009001
0.1673187017440796 -0.0695699155330658 0.5039445757865906 0.08641621470451355 0.19362275302410126 -0.5409632921218872  738318.7441011079
0.16618108749389648 -0.06914063543081284 0.5031955242156982 0.03324463218450546 0.1073492094874382 -0.5380451083183289  738318.7441012118
0.16604198515415192 -0.06859520822763443 0.503195583820343 -0.013897721655666828 0.033553674817085266 -0.5618827939033508  738318.7441014202
0.16631853580474854 -0.0715562030673027 0.5039515495300293 0.1562848836183548 -0.24096646904945374 -0.47143980860710144  738318.7441014433
0.1656099110841751 -0.07064004987478256 0.5052770972251892 0.17059308290481567 -0.33688151836395264 -0.48723819851875305  738318.7441019281
0.16456587612628937 -0.0701746791601181 0.5055824518203735 0.19138486683368683 -0.21784934401512146 -0.5004680156707764  738318.7441021244
0.16415825486183167 -0.06960124522447586 0.5057488083839417 0.18311560153961182 -0.12256263196468353 -0.5004261136054993  738318.7441022629
0.1627545803785324 -0.06943031400442123 0.5053789615631104 0.27744895219802856 -0.08731281012296677 -0.5268166661262512  738318.7441024937
0.16165989637374878 -0.07111456990242004 0.5061517357826233 0.35127899050712585 0.17688007652759552 -0.4955049455165863  738318.7441027516
0.16013653576374054 -0.06989455968141556 0.50682133436203 0.3517721891403198 0.31571486592292786 -0.4991050064563751  738318.7441031556
0.15982580184936523 -0.06981224566698074 0.5069786906242371 0.30521416664123535 0.35051727294921875 -0.49553510546684265  738318.7441033171
0.1594797670841217 -0.0692029669880867 0.5071350932121277 0.2306251972913742 0.34728458523750305 -0.49556803703308105  738318.744103548
0.1589352786540985 -0.06899233162403107 0.5053094625473022 0.19317471981048584 0.27823522686958313 -0.501573383808136  738318.7441037097
0.15835879743099213 -0.06870273500680923 0.5053672790527344 0.1606767475605011 0.20119094848632812 -0.5010571479797363  738318.7441038614
0.15809932351112366 -0.06837710738182068 0.505448043346405 0.061420366168022156 0.19468529522418976 -0.5019157528877258  738318.7441040347
0.15826421976089478 -0.0705244392156601 0.5061890482902527 0.1302671879529953 0.08068296313285828 -0.4254988729953766  738318.744104381
0.15712133049964905 -0.06916195154190063 0.5046719312667847 -0.07832593470811844 0.04339924454689026 -0.4257602095603943  738318.7441046003
0.15616442263126373 -0.0688084214925766 0.5045440793037415 -0.15800246596336365 -0.0026852439623326063 -0.4193812310695648  738318.7441048311
0.15545816719532013 -0.06860192865133286 0.5050463676452637 -0.19902046024799347 0.051886387169361115 -0.40906569361686707  738318.7441048889
0.15464341640472412 -0.06785076856613159 0.5048848986625671 -0.2561272382736206 0.063942551612854 -0.38430681824684143  738318.7441049337
0.15413925051689148 -0.06793537735939026 0.5047929286956787 -0.2944051921367645 0.0650414526462555 -0.3844797909259796  738318.7441051647
0.15269657969474792 -0.06741663813591003 0.5047187209129333 -0.40580111742019653 0.09529557824134827 -0.3430357575416565  738318.7441053262
0.15173456072807312 -0.06901189684867859 0.5052208304405212 -0.2966410219669342 0.034104056656360626 -0.2953614592552185  738318.7441054416
0.1510547548532486 -0.06872789561748505 0.5042480826377869 -0.33877789974212646 0.09280066937208176 -0.27123087644577026  738318.7441058803
0.14954940974712372 -0.0683402493596077 0.5039976835250854 -0.3565981984138489 0.07089123874902725 -0.25879907608032227  738318.7441060996
0.14990249276161194 -0.06757793575525284 0.5038667917251587 -0.3731422424316406 0.08049894124269485 -0.2421974539756775  738318.7441061806
0.14946779608726501 -0.06749573349952698 0.5034424066543579 -0.38476189970970154 0.0730418860912323 -0.23258906602859497  738318.7441063654
0.14683343470096588 -0.0679563358426094 0.5038502812385559 -0.36489924788475037 0.21919667720794678 -0.20215584337711334  738318.7441064807
0.1454223096370697 -0.06664825975894928 0.5033655166625977 -0.29104092717170715 0.3164897859096527 -0.1706082969903946  738318.7441068158
0.1447640210390091 -0.06660901010036469 0.5033145546913147 -0.31504109501838684 0.3465630114078522 -0.1495761126279831  738318.7441069656
0.1442844122648239 -0.06604857742786407 0.5032691359519958 -0.3215634822845459 0.29764121770858765 -0.13690213859081268  738318.7441071502
0.14312565326690674 -0.06550469994544983 0.5023272037506104 -0.3126477897167206 0.23902763426303864 -0.12405422329902649  738318.7441073826
0.14182929694652557 -0.06674128025770187 0.5022014379501343 -0.3534945845603943 0.14419429004192352 -0.0981915146112442  738318.7441075558
0.14243927597999573 -0.06583456695079803 0.5028841495513916 -0.4359838366508484 -0.06235620751976967 -0.10869516432285309  738318.7441080752
0.1408475637435913 -0.06428072601556778 0.5032926797866821 -0.4727259576320648 -0.13004156947135925 -0.07390415668487549  738318.744108377
0.1403709203004837 -0.0640677884221077 0.503277599811554 -0.5040649175643921 -0.12331266701221466 -0.06969066709280014  738318.7441085391
0.13991644978523254 -0.063633494079113 0.5032703876495361 -0.5268272161483765 -0.12364938855171204 -0.04745608568191528  738318.7441087696
0.13942214846611023 -0.06330396980047226 0.5008289813995361 -0.5311381220817566 -0.1457434445619583 -0.04582057148218155  738318.744108943
0.13859334588050842 -0.06372704356908798 0.5005921721458435 -0.47102999687194824 -0.13585492968559265 -0.007545772939920425  738318.7441091044
0.1378687620162964 -0.06163017824292183 0.501907467842102 -0.5354375243186951 -0.264046311378479 0.014403371140360832  738318.7441092235
0.1372370719909668 -0.061166178435087204 0.501875102519989 -0.4215887188911438 -0.15406887233257294 0.061329178512096405  738318.744109454
0.13675913214683533 -0.06079043447971344 0.5018698573112488 -0.3118954300880432 -0.142249196767807 0.07278459519147873  738318.7441096961
0.13589006662368774 -0.05982924625277519 0.5031337738037109 -0.12797173857688904 -0.06772521138191223 0.12127290666103363  738318.7441097766
0.13515456020832062 -0.059059493243694305 0.5033369064331055 0.020728295668959618 0.03648701682686806 0.1506626009941101  738318.7441099382
0.134742870926857 -0.05862994119524956 0.5034449100494385 0.07660215348005295 0.10395278036594391 0.16487666964530945  738318.7441100997
0.13441115617752075 -0.059244923293590546 0.5025529861450195 0.15264634788036346 0.12728668749332428 0.1758778840303421  738318.7441103306
0.1336296796798706 -0.05844217538833618 0.5026915073394775 0.23300647735595703 0.17447419464588165 0.21337223052978516  738318.7441104114
0.1322028487920761 -0.05680658668279648 0.5034357905387878 0.22133108973503113 0.1756647378206253 0.18622618913650513  738318.7441105384
0.1325293481349945 -0.060811322182416916 0.5030773878097534 0.31483474373817444 0.09631647169589996 0.2083214819431305  738318.7441107078
0.13292784988880157 -0.06221449375152588 0.5032261610031128 0.3550567328929901 -0.03598281368613243 0.22654293477535248  738318.7441108273
0.13245375454425812 -0.06201852113008499 0.5027884244918823 0.33551329374313354 -0.055074986070394516 0.24699042737483978  738318.744110989
0.13216985762119293 -0.06225181370973587 0.5027579069137573 0.3303311765193939 -0.08008728176355362 0.25569507479667664  738318.7441111621
0.1287958174943924 -0.057938992977142334 0.503365159034729 0.10025747865438461 0.09645471721887589 0.20664995908737183  738318.7441114045
0.1272478699684143 -0.05673309415578842 0.5022351741790771 -0.0673801377415657 0.21477030217647552 0.22171492874622345  738318.7441118491
0.1263500452041626 -0.05662413686513901 0.5020259618759155 -0.06440513581037521 0.20772984623908997 0.24247944355010986  738318.7441118722
0.12576735019683838 -0.05605544149875641 0.5034990310668945 -0.09438539296388626 0.15339112281799316 0.2519751489162445  738318.7441120107
0.12541650235652924 -0.055722154676914215 0.503477156162262 -0.09200707823038101 0.08318408578634262 0.26795321702957153  738318.7441121611
0.12158184498548508 -0.051385048776865005 0.5029681921005249 -0.0681307390332222 0.11053410917520523 0.2445981651544571  738318.7441122188
0.12095331400632858 -0.050941504538059235 0.5029044151306152 0.00920818094164133 0.08002717047929764 0.2726076543331146  738318.7441125994
0.12041255086660385 -0.050616130232810974 0.50286865234375 0.08897850662469864 0.10956868529319763 0.29023221135139465  738318.7441128303
0.11974570900201797 -0.05058562755584717 0.5028436779975891 0.16924738883972168 0.14776268601417542 0.298625648021698  738318.7441130034
0.11851125210523605 -0.050153471529483795 0.5024859309196472 0.4045584201812744 0.14241580665111542 0.32792866230010986  738318.74411313
0.11813533306121826 -0.049995798617601395 0.5024864673614502 0.4899515211582184 0.16124224662780762 0.3387652039527893  738318.7441134069
0.11758048087358475 -0.049713410437107086 0.5025016069412231 0.5888668894767761 0.12502937018871307 0.349901020526886  738318.7441135453
0.1169162318110466 -0.04681520536541939 0.5019598603248596 0.6933380961418152 0.06255003064870834 0.3541015684604645  738318.7441137416
0.11512664705514908 -0.04402630776166916 0.5026504397392273 0.6729167103767395 -0.1004696637392044 0.337970107793808  738318.744113857
0.11371354013681412 -0.04295811429619789 0.5020939707756042 0.7003768682479858 -0.284580796957016 0.3515840768814087  738318.7441140532
0.1132497563958168 -0.04251838102936745 0.5021188259124756 0.6889342665672302 -0.31733036041259766 0.35419535636901855  738318.7441141572
0.11273440718650818 -0.04218944162130356 0.5021455883979797 0.6862702965736389 -0.36024752259254456 0.34694159030914307  738318.7441144458
0.11172211170196533 -0.041568443179130554 0.5025367736816406 0.7267805933952332 -0.3839339315891266 0.3523721396923065  738318.7441146189
0.11177454143762589 -0.043375879526138306 0.5026997923851013 0.8768017292022705 -0.35214075446128845 0.3554650545120239  738318.7441149998
0.1092362105846405 -0.04084932059049606 0.5034976601600647 0.8939521312713623 -0.27310311794281006 0.36732739210128784  738318.7441152537
0.10805363208055496 -0.04027575999498367 0.5030957460403442 1.035685420036316 -0.27363327145576477 0.36712759733200073  738318.7441155339
0.10756385326385498 -0.040085144340991974 0.5032139420509338 1.0570850372314453 -0.2600962519645691 0.36062556505203247  738318.7441157417
0.10707879066467285 -0.039912573993206024 0.5033405423164368 1.109307050704956 -0.2788204848766327 0.35744336247444153  738318.7441157763
0.10659848153591156 -0.03975861147046089 0.5034713745117188 1.1530027389526367 -0.26291823387145996 0.36434850096702576  738318.7441159033
0.10637925565242767 -0.04060658439993858 0.5021893382072449 1.2610156536102295 -0.24411870539188385 0.3753015697002411  738318.7441160303
0.10367090255022049 -0.03849662467837334 0.5028720498085022 1.2380807399749756 -0.14693298935890198 0.3539288341999054  738318.7441163076
0.10267867892980576 -0.0384552963078022 0.5024919509887695 1.2870848178863525 -0.061506085097789764 0.3538624346256256  738318.7441165845
0.10187358409166336 -0.03850879520177841 0.5024204850196838 1.3435927629470825 -0.024223482236266136 0.37916526198387146  738318.7441167694
0.10127444565296173 -0.038643062114715576 0.502474308013916 1.3413811922073364 0.0206650048494339 0.39768490195274353  738318.7441169423
0.1004910096526146 -0.038537345826625824 0.5023773312568665 1.3904099464416504 0.03310496360063553 0.410480797290802  738318.7441171155
0.10026954859495163 -0.038755569607019424 0.502275824546814 1.4122487306594849 0.07010095566511154 0.4109817445278168  738318.7441173348
0.09975943714380264 -0.03885849565267563 0.5021725296974182 1.3922816514968872 0.05849181488156319 0.4149340093135834  738318.7441173926
0.09821965545415878 -0.03802366554737091 0.5028786659240723 1.4741241931915283 -0.010303154587745667 0.4358375072479248  738318.7441176241
0.09455717355012894 -0.03910946473479271 0.5010571479797363 1.209271788597107 -0.13129904866218567 0.472476065158844  738318.7441181551
0.0939101129770279 -0.039323508739471436 0.5009339451789856 1.1466624736785889 -0.19836726784706116 0.46604740619659424  738318.7441183282
0.09327483177185059 -0.03994547948241234 0.5007216334342957 1.015486240386963 -0.240880087018013 0.47428277134895325  738318.7441184437
0.09225884824991226 -0.04057537019252777 0.5010566115379333 0.8994317054748535 -0.3070324659347534 0.4764733910560608  738318.7441186057
0.09084484726190567 -0.03914237394928932 0.5016645789146423 0.7935576438903809 -0.33377373218536377 0.4823075830936432  738318.7441188191
0.08991999924182892 -0.0401143915951252 0.5006668567657471 0.6715289354324341 -0.40124261379241943 0.4861486554145813  738318.744119165
0.08920404314994812 -0.041058529168367386 0.500675618648529 0.6051766872406006 -0.48242467641830444 0.5066508650779724  738318.744119292
0.08836442977190018 -0.04179857298731804 0.5023871660232544 0.5511590838432312 -0.4646109342575073 0.5197256803512573  738318.7441195229
0.08700834959745407 -0.04359644278883934 0.502661943435669 0.6547319889068604 -0.3667445480823517 0.52386873960495  738318.7441196386
0.08598477393388748 -0.04412400722503662 0.5034269690513611 0.8316944241523743 -0.3975616991519928 0.546329915523529  738318.7441198692
0.08434044569730759 -0.04620102792978287 0.5029563903808594 0.7690606117248535 -0.33094820380210876 0.555694043636322  738318.744120285
0.08465870469808578 -0.04587052762508392 0.5030657649040222 0.7082158923149109 -0.3555731773376465 0.5530225038528442  738318.7441204466
0.08431345224380493 -0.046425558626651764 0.5018981695175171 0.6445911526679993 -0.320114403963089 0.5624491572380066  738318.7441206197
0.08415587246417999 -0.04633606970310211 0.501923680305481 0.5395610332489014 -0.3667418360710144 0.5583575963973999  738318.7441207928
0.08382836729288101 -0.04690195992588997 0.5019437074661255 0.44196587800979614 -0.4111942946910858 0.5636769533157349  738318.7441210122
0.08266781270503998 -0.04795863851904869 0.5019704699516296 0.3638722002506256 -0.36465027928352356 0.5728182196617126  738318.7441210931
0.08057934045791626 -0.049668800085783005 0.5017198920249939 0.30939051508903503 -0.29418909549713135 0.5279917120933533  738318.7441211167
0.0797661691904068 -0.05111827701330185 0.5016891956329346 0.14773495495319366 -0.28741663694381714 0.5316255688667297  738318.744121463
0.07910331338644028 -0.05246082693338394 0.5009761452674866 0.031994253396987915 -0.2962186336517334 0.544672429561615  738318.744121463
0.07887919247150421 -0.0522124245762825 0.5009059309959412 -0.019581053406000137 -0.31789079308509827 0.5464058518409729  738318.7441216824
0.0786227434873581 -0.0530940443277359 0.500826358795166 -0.07982908189296722 -0.35004377365112305 0.549037516117096  738318.7441218443
