% x y z r p yw  738318.7043926142
-0.6834566593170166 -0.004698619712144136 0.03572895750403404 0.640839695930481 0.03871772065758705 61.330963134765625  738318.7044008347
-0.7132496237754822 0.001113000325858593 0.03641323372721672 0.642410397529602 0.03990984335541725 61.3892707824707  738318.7044009946
-0.3600401282310486 -0.28191378712654114 0.03146318346261978 0.6737679243087769 -0.08632437884807587 -36.16111373901367  738318.7044010626
-0.26895931363105774 -0.31283533573150635 0.03186022862792015 0.6732605695724487 -0.08634798228740692 -36.125728607177734  738318.7044011889
-0.17785398662090302 -0.34371325373649597 0.03225721791386604 0.6720359921455383 -0.08680775761604309 -36.08943557739258  738318.7044012944
-0.0867260992527008 -0.3745465874671936 0.032653383910655975 0.670550525188446 -0.08835946768522263 -36.05359649658203  738318.7044014072
0.0044239237904548645 -0.40533629059791565 0.03304940089583397 0.6694786548614502 -0.08967389911413193 -36.01865768432617  738318.7044015339
0.09559706598520279 -0.43608251214027405 0.03344837576150894 0.6693888902664185 -0.09041590243577957 -35.98337936401367  738318.7044016488
0.18679358065128326 -0.4667834937572479 0.03385062515735626 0.667412519454956 -0.0912141278386116 -35.94655227661133  738318.7044017648
0.27801311016082764 -0.4974391460418701 0.034254804253578186 0.6671363115310669 -0.09151045233011246 -35.910274505615234  738318.704401873
0.3692554831504822 -0.5280507206916809 0.034660033881664276 0.6668506264686584 -0.09032125025987625 -35.8757438659668  738318.7044019811
0.46052128076553345 -0.5586190819740295 0.03506622090935707 0.6655285358428955 -0.09087014943361282 -35.84038543701172  738318.7044020963
-0.18951696157455444 -0.48262789845466614 0.03163449838757515 -2.9034996032714844 2.984297752380371 -88.34974670410156  738318.7044022264
-0.10849753022193909 -0.525296688079834 0.02963094413280487 -2.902712106704712 2.980492353439331 -88.27005767822266  738318.7044023322
-0.027364447712898254 -0.5678091645240784 0.027623631060123444 -2.901433229446411 2.9766900539398193 -88.19000244140625  738318.7044024437
0.05388158559799194 -0.6101644039154053 0.02561263181269169 -2.9017605781555176 2.9726791381835938 -88.11053466796875  738318.7044025717
0.13523998856544495 -0.6523624658584595 0.023596791550517082 -2.9028682708740234 2.9677181243896484 -88.03026580810547  738318.7044026788
0.21671055257320404 -0.6944036483764648 0.0215753186494112 -2.901700258255005 2.9647576808929443 -87.95111846923828  738318.7044027903
0.29829227924346924 -0.7362875938415527 0.019549058750271797 -2.901066780090332 2.9613325595855713 -87.87127685546875  738318.7044029107
0.37998467683792114 -0.7780147194862366 0.017517412081360817 -2.9017136096954346 2.958399534225464 -87.7920150756836  738318.7044030257
0.4617869257926941 -0.8195858597755432 0.015479444526135921 -2.9016170501708984 2.9550302028656006 -87.71288299560547  738318.704403146
0.5436981916427612 -0.8610016703605652 0.013436362147331238 -2.902266025543213 2.9499409198760986 -87.6340103149414  738318.704403308
0.020071156322956085 -0.48462826013565063 0.031692299991846085 -0.6543595790863037 6.258725643157959 -102.95477294921875  738318.7044033861
0.10141541808843613 -0.4973333477973938 0.02794683165848255 -0.6591351628303528 6.253218173980713 -102.86424255371094  738318.7044034927
0.18281781673431396 -0.5098206996917725 0.02419273555278778 -0.6636462211608887 6.249183654785156 -102.774169921875  738318.7044036051
0.2642768621444702 -0.522089421749115 0.02042914554476738 -0.6687412261962891 6.244350910186768 -102.68376159667969  738318.7044037204
0.3457924425601959 -0.5341396927833557 0.016654901206493378 -0.6728613376617432 6.2396626472473145 -102.5927734375  738318.7044038383
0.4273635149002075 -0.5459719300270081 0.012870734557509422 -0.6768160462379456 6.235314846038818 -102.50206756591797  738318.7044039535
0.5089890956878662 -0.5575858950614929 0.00907872337847948 -0.681235671043396 6.231102466583252 -102.41154479980469  738318.7044040692
0.5906696915626526 -0.5689815878868103 0.005278684198856354 -0.68646639585495 6.2274322509765625 -102.32260131835938  738318.7044041844
0.6724054217338562 -0.5801585912704468 0.0014698072336614132 -0.6914916038513184 6.22141170501709 -102.23164367675781  738318.7044042994
0.7541955709457397 -0.5911164283752441 -0.0023481398820877075 -0.6955475211143494 6.2158002853393555 -102.14270782470703  738318.7044044081
0.8360390663146973 -0.601855456829071 -0.006176012568175793 -0.6998756527900696 6.210907459259033 -102.05379486083984  738318.7044046384
0.9261260628700256 -0.6134230494499207 -0.010396779514849186 -0.7037929892539978 6.20625638961792 -101.96512603759766  738318.7044046732
0.15295827388763428 -0.3033618927001953 0.017166592180728912 2.834800958633423 7.262772083282471 -110.85086059570312  738318.704404777
0.21510660648345947 -0.2900039255619049 0.011502030305564404 2.8270866870880127 7.26176643371582 -110.7563705444336  738318.7044048854
0.27723079919815063 -0.2764222025871277 0.00582374632358551 2.8190348148345947 7.260636806488037 -110.66091918945312  738318.7044049869
0.3393305540084839 -0.26261642575263977 0.00013259798288345337 2.8107316493988037 7.260228633880615 -110.5665054321289  738318.7044051104
0.4014063775539398 -0.24858616292476654 -0.005571227520704269 2.8036820888519287 7.259125709533691 -110.47207641601562  738318.7044052278
0.4634590148925781 -0.23433145880699158 -0.011286810040473938 2.796020269393921 7.257106304168701 -110.37801361083984  738318.704405355
0.5254881978034973 -0.21985244750976562 -0.0170140378177166 2.7875518798828125 7.255542278289795 -110.28339385986328  738318.7044054524
0.5874916315078735 -0.20514971017837524 -0.022753071039915085 2.7802209854125977 7.255100727081299 -110.18794250488281  738318.7044056446
0.08094759285449982 -0.1550980657339096 0.00915873795747757 5.893284320831299 6.747398853302002 -116.73109436035156  738318.704405692
0.13204629719257355 -0.13280217349529266 0.002459099516272545 5.884968280792236 6.748648166656494 -116.63331604003906  738318.7044058186
0.18306663632392883 -0.11028304696083069 -0.004258907400071621 5.875508785247803 6.750383377075195 -116.53583526611328  738318.7044059337
0.23400799930095673 -0.08753969520330429 -0.010995179414749146 5.8671746253967285 6.75184440612793 -116.43870544433594  738318.7044060382
0.2848709225654602 -0.06457190215587616 -0.01774853840470314 5.858166217803955 6.752585411071777 -116.34065246582031  738318.7044061526
0.3356555104255676 -0.041381239891052246 -0.024517616257071495 5.849992752075195 6.754576683044434 -116.24159240722656  738318.7044062569
0.38635993003845215 -0.017968274652957916 -0.03130157291889191 5.841708183288574 6.756914138793945 -116.14490509033203  738318.7044063858
0.436983197927475 0.005666747689247131 -0.03810056298971176 5.8321852684021 6.758439064025879 -116.04564666748047  738318.7044065018
0.4875262975692749 0.029522698372602463 -0.04491504281759262 5.824246406555176 6.760164737701416 -115.94811248779297  738318.704406606
0.5379898548126221 0.05359965190291405 -0.05174580216407776 5.815168380737305 6.762528896331787 -115.85218811035156  738318.7044067212
0.5883722305297852 0.07789848744869232 -0.05859404429793358 5.805695056915283 6.765257358551025 -115.75372314453125  738318.7044069013
0.12647923827171326 0.004965376574546099 -0.015252303332090378 8.79084587097168 5.324823379516602 -120.32156372070312  738318.7044069672
0.16416746377944946 0.030900361016392708 -0.022383544594049454 8.782422065734863 5.330216407775879 -120.22183990478516  738318.7044070823
0.20172446966171265 0.05704256519675255 -0.0295365359634161 8.772011756896973 5.3339667320251465 -120.12135314941406  738318.7044071836
0.23914948105812073 0.08339184522628784 -0.03671075031161308 8.762739181518555 5.33815860748291 -120.02043151855469  738318.7044072975
0.2764425575733185 0.1099482923746109 -0.04390598088502884 8.7531099319458 5.34331750869751 -119.9205093383789  738318.7044074158
0.31360307335853577 0.1367117315530777 -0.05112213268876076 8.743927001953125 5.349415302276611 -119.82010650634766  738318.7044075361
0.35063067078590393 0.16368068754673004 -0.058359477669000626 8.733370780944824 5.35426664352417 -119.71961975097656  738318.7044076511
0.38752561807632446 0.19085392355918884 -0.06561784446239471 8.723588943481445 5.357949733734131 -119.6195297241211  738318.7044077746
0.4242866635322571 0.21823152899742126 -0.07289674133062363 8.713817596435547 5.36196756362915 -119.52043914794922  738318.7044079548
0.08531222492456436 0.10006833076477051 -0.028155049309134483 11.287821769714355 3.198720693588257 -123.08673858642578  738318.7044079959
0.11302407085895538 0.12654376029968262 -0.035480059683322906 11.280141830444336 3.2081797122955322 -122.98616790771484  738318.7044081101
0.1405550241470337 0.15320761501789093 -0.04282914847135544 11.271754264831543 3.2151875495910645 -122.88512420654297  738318.7044082278
0.16790470480918884 0.18005988001823425 -0.05020270124077797 11.264095306396484 3.2242226600646973 -122.7853775024414  738318.7044083547
0.19507275521755219 0.2070995569229126 -0.057600826025009155 11.255550384521484 3.2330498695373535 -122.684326171875  738318.7044084589
0.2220585197210312 0.23432506620883942 -0.06502370536327362 11.246663093566895 3.2405388355255127 -122.58257293701172  738318.7044085752
0.24885985255241394 0.26173609495162964 -0.07247195392847061 11.23804759979248 3.248957872390747 -122.48225402832031  738318.7044086901
0.27547723054885864 0.2893327474594116 -0.07994493097066879 11.22927474975586 3.257199764251709 -122.3810806274414  738318.7044088177
0.3019123673439026 0.3171136975288391 -0.08744119852781296 11.220477104187012 3.2659354209899902 -122.28099060058594  738318.7044089333
0.32816457748413086 0.3450777530670166 -0.09496095776557922 11.211955070495605 3.274172067642212 -122.18193817138672  738318.7044090371
0.3542328476905823 0.3732245862483978 -0.10250523686408997 11.20289421081543 3.2805912494659424 -122.08129119873047  738318.704409216
0.0510709285736084 0.19759102165699005 -0.04573692008852959 13.434040069580078 0.3133751153945923 -124.89239501953125  738318.7044092716
0.06917183101177216 0.22290612757205963 -0.053002506494522095 13.427034378051758 0.326905757188797 -124.79230499267578  738318.7044093858
0.08704068511724472 0.24837623536586761 -0.06030124053359032 13.419442176818848 0.3389894366264343 -124.69120025634766  738318.7044094995
0.10467656701803207 0.2740008533000946 -0.06763171404600143 13.411680221557617 0.3497026264667511 -124.58873748779297  738318.7044096167
0.12207992374897003 0.2997782230377197 -0.07499174028635025 13.404152870178223 0.3609181344509125 -124.48792266845703  738318.7044097338
0.1392507404088974 0.32570743560791016 -0.08238257467746735 13.397363662719727 0.3718835413455963 -124.38653564453125  738318.7044098501
0.15618842840194702 0.3517898619174957 -0.08980529010295868 13.390164375305176 0.38383227586746216 -124.2861328125  738318.7044099723
0.17289242148399353 0.378025621175766 -0.09725841879844666 13.383859634399414 0.3944660425186157 -124.186767578125  738318.7044100823
0.18936191499233246 0.404413104057312 -0.1047414019703865 13.376283645629883 0.4067207872867584 -124.08690643310547  738318.7044102484
-0.02717222273349762 0.2375268191099167 -0.05153887718915939 15.125906944274902 -3.283582925796509 -126.41527557373047  738318.7044103157
-0.016573835164308548 0.2608139216899872 -0.0587429478764534 15.121365547180176 -3.2675111293792725 -126.314453125  738318.7044104394
-0.006256725639104843 0.2842205762863159 -0.06598788499832153 15.121162414550781 -3.268404483795166 -126.31442260742188  738318.7044105638
0.0038216887041926384 0.30773550271987915 -0.07326626032590866 15.121955871582031 -3.2677505016326904 -126.31267547607422  738318.7044106635
0.013660067692399025 0.331359326839447 -0.08057279884815216 15.129386901855469 -3.2710518836975098 -126.32100677490234  738318.7044107836
0.023258307948708534 0.3550921380519867 -0.08790729939937592 15.103729248046875 -3.2722578048706055 -126.31855010986328  738318.704410887
0.032616548240184784 0.37893375754356384 -0.09526985138654709 15.112757682800293 -3.302816152572632 -126.30512237548828  738318.7044110029
0.04173310101032257 0.4028845429420471 -0.10265415161848068 15.084287643432617 -3.326450824737549 -126.29829406738281  738318.7044111184
0.05060717463493347 0.4269443154335022 -0.1100575253367424 15.086355209350586 -3.3356521129608154 -126.30203247070312  738318.7044112324
0.05924280360341072 0.45111095905303955 -0.11749587953090668 15.02431869506836 -3.3670599460601807 -126.26762390136719  738318.7044113494
0.06764676421880722 0.47538071870803833 -0.12499555200338364 15.039152145385742 -3.3938677310943604 -126.27647399902344  738318.7044115466
-0.1081131100654602 0.2840512692928314 -0.06378305703401566 16.256071090698242 -7.745199203491211 -127.97798156738281  738318.7044115814
-0.10471323132514954 0.30449163913726807 -0.071021169424057 16.2316951751709 -7.775498867034912 -127.97441864013672  738318.7044117108
-0.10161156952381134 0.32500144839286804 -0.07829549908638 16.18083953857422 -7.857194900512695 -127.95169067382812  738318.704411815
-0.09882073104381561 0.3455822467803955 -0.0855664387345314 16.039587020874023 -7.918444633483887 -127.85929107666016  738318.704411932
-0.0963454619050026 0.36623239517211914 -0.0928170308470726 15.835988998413086 -7.938051223754883 -127.86968231201172  738318.7044120465
-0.09418115764856339 0.38694900274276733 -0.10005464404821396 15.595420837402344 -7.993119716644287 -127.85687255859375  738318.7044121594
-0.09232888370752335 0.40772971510887146 -0.10726664215326309 15.123396873474121 -8.06735610961914 -127.80762481689453  738318.7044122771
-0.09080000966787338 0.4285719692707062 -0.11439985781908035 14.36659049987793 -8.121774673461914 -127.73828887939453  738318.7044123939
-0.08960353583097458 0.4494694769382477 -0.1213918924331665 13.340903282165527 -8.148713111877441 -127.63699340820312  738318.7044125214
-0.20403727889060974 0.2805492877960205 -0.06566578149795532 12.410198211669922 -12.51213550567627 -129.08486938476562  738318.7044126253
-0.20669032633304596 0.29774904251098633 -0.07200641185045242 10.584216117858887 -12.57898235321045 -128.9378662109375  738318.7044127388
-0.20970918238162994 0.31489554047584534 -0.07810880988836288 8.374738693237305 -12.549867630004883 -128.74159240722656  738318.7044128556
-0.21306002140045166 0.3319591283798218 -0.08396880328655243 5.731686592102051 -12.45950698852539 -128.493408203125  738318.7044129719
-0.21669761836528778 0.3489095866680145 -0.089603491127491 2.604623317718506 -12.354467391967773 -128.23243713378906  738318.7044130933
-0.22057078778743744 0.36571356654167175 -0.09503065794706345 -0.8172526359558105 -12.3184175491333 -127.93123626708984  738318.7044132033
-0.22462081909179688 0.38233718276023865 -0.10028620809316635 -4.406101226806641 -12.294211387634277 -127.6093978881836  738318.7044133148
-0.2287885546684265 0.3987443149089813 -0.10540096461772919 -7.960407257080078 -12.24585247039795 -127.27758026123047  738318.7044134351
-0.23301315307617188 0.41489359736442566 -0.1103878915309906 -11.271739959716797 -12.225358009338379 -126.92426300048828  738318.7044135513
-0.23723439872264862 0.4307466745376587 -0.11526462435722351 -14.196566581726074 -12.24814510345459 -126.54646301269531  738318.7044137265
-0.2962794303894043 0.26986727118492126 -0.0605425164103508 -16.780284881591797 -14.827969551086426 -129.2861328125  738318.7044137842
-0.3022509217262268 0.281751424074173 -0.06494388729333878 -18.859079360961914 -14.794546127319336 -128.84422302246094  738318.7044138986
-0.3081263303756714 0.29321905970573425 -0.06931917369365692 -20.44645881652832 -14.720158576965332 -128.32290649414062  738318.7044140137
-0.3138755261898041 0.3042623698711395 -0.07369978725910187 -21.493488311767578 -14.60407543182373 -127.72294616699219  738318.7044141317
-0.31947192549705505 0.3148687779903412 -0.07808776944875717 -22.034713745117188 -14.409927368164062 -127.10591888427734  738318.7044142451
-0.32489442825317383 0.32502681016921997 -0.08246954530477524 -22.04703140258789 -14.153460502624512 -126.46138000488281  738318.7044143608
-0.33013013005256653 0.3347340524196625 -0.08683239668607712 -21.59220314025879 -13.843459129333496 -125.80423736572266  738318.7044144775
-0.33517777919769287 0.34400370717048645 -0.09118162095546722 -20.85430145263672 -13.494637489318848 -125.14654541015625  738318.7044146045
-0.34004154801368713 0.35285332798957825 -0.09552264958620071 -19.97903060913086 -13.105027198791504 -124.48396301269531  738318.7044147209
-0.3447253406047821 0.361296147108078 -0.09984458982944489 -19.041500091552734 -12.735421180725098 -123.81722259521484  738318.7044148217
-0.3492330014705658 0.36934274435043335 -0.10412684828042984 -18.08439826965332 -12.402846336364746 -123.16226196289062  738318.7044149573
-0.37104424834251404 0.2001321017742157 -0.05432307347655296 -16.762832641601562 -16.112241744995117 -125.2634506225586  738318.7044150629
-0.3771282136440277 0.20357388257980347 -0.05851762369275093 -16.125778198242188 -15.78359317779541 -124.66999053955078  738318.7044151681
-0.38312503695487976 0.20662084221839905 -0.06272386014461517 -15.745940208435059 -15.46990966796875 -124.02875518798828  738318.7044152836
-0.38903504610061646 0.20928579568862915 -0.06694662570953369 -15.65888786315918 -15.017725944519043 -123.37450408935547  738318.7044153997
-0.3948538601398468 0.21157869696617126 -0.07118755578994751 -15.761661529541016 -14.320235252380371 -122.67105102539062  738318.7044155155
-0.4005706012248993 0.213505357503891 -0.07543494552373886 -15.895621299743652 -13.40714168548584 -121.92810821533203  738318.7044156312
-0.4061693251132965 0.2150721698999405 -0.07966911792755127 -16.08952522277832 -12.186766624450684 -121.09215545654297  738318.7044157466
-0.41163408756256104 0.21629884839057922 -0.08389592170715332 -16.339262008666992 -10.625635147094727 -120.17804718017578  738318.7044158553
-0.4169468581676483 0.2172110229730606 -0.08812617510557175 -16.6868839263916 -8.721668243408203 -119.20892333984375  738318.7044160542
-0.3904915750026703 0.057322170585393906 -0.04341106489300728 -16.81403923034668 -10.692011833190918 -120.40180206298828  738318.704416099
-0.3963969945907593 0.05374180153012276 -0.04761706292629242 -17.04205894470215 -8.54333209991455 -119.39875030517578  738318.7044162164
-0.4021182060241699 0.04986123368144035 -0.05180302634835243 -17.230693817138672 -6.387242317199707 -118.37457275390625  738318.7044163318
-0.40762853622436523 0.0457150824368 -0.05596397817134857 -17.36286163330078 -4.312924861907959 -117.36600494384766  738318.7044164446
-0.41290271282196045 0.04133860394358635 -0.060094110667705536 -17.373912811279297 -2.318071126937866 -116.40581512451172  738318.7044165604
-0.4179166555404663 0.03676578775048256 -0.06418025493621826 -17.234519958496094 -0.46293044090270996 -115.52435302734375  738318.7044166755
-0.4226527214050293 0.03203272819519043 -0.06821930408477783 -16.950979232788086 1.248658537864685 -114.70001983642578  738318.704416791
-0.4271012246608734 0.027175163850188255 -0.0722188726067543 -16.529747009277344 2.718255043029785 -114.00447082519531  738318.7044168962
-0.43125051259994507 0.022224385291337967 -0.07616313546895981 -16.050140380859375 3.9554388523101807 -113.4382095336914  738318.7044170117
-0.4350960850715637 0.017209604382514954 -0.08004666864871979 -15.506237983703613 5.017101764678955 -112.93771362304688  738318.7044171349
-0.438637375831604 0.012156370095908642 -0.0838664099574089 -14.962956428527832 5.896312236785889 -112.49864196777344  738318.7044173193
-0.3648141324520111 -0.1413894146680832 -0.04765624180436134 -14.2405424118042 1.463265299797058 -114.02399444580078  738318.704417359
-0.36794936656951904 -0.1509585976600647 -0.05158483609557152 -13.793683052062988 2.0547850131988525 -113.70526885986328  738318.704417482
-0.37082555890083313 -0.16060438752174377 -0.05541817471385002 -13.4815673828125 2.5773355960845947 -113.38978576660156  738318.7044175952
-0.373455673456192 -0.17031040787696838 -0.059201888740062714 -13.753372192382812 3.1252691745758057 -112.6594009399414  738318.7044177116
-0.3758961260318756 -0.18005380034446716 -0.06318251043558121 -16.826263427734375 3.9344735145568848 -109.88462829589844  738318.7044178271
-0.3782937526702881 -0.18980605900287628 -0.06786751747131348 -26.205060958862305 4.77259635925293 -103.10962677001953  738318.7044179498
-0.38089847564697266 -0.19955185055732727 -0.0735669955611229 -42.50708770751953 2.9321999549865723 -91.74175262451172  738318.7044180615
-0.38398221135139465 -0.20929257571697235 -0.08035079389810562 -58.92864990234375 -3.199082851409912 -74.53257751464844  738318.7044181786
-0.38798093795776367 -0.21935434639453888 -0.08819606900215149 -69.67723846435547 -11.29430103302002 -55.76445770263672  738318.7044183325
-0.2681260108947754 -0.2929041087627411 -0.039422087371349335 -80.44217681884766 -14.983274459838867 -41.9241828918457  738318.7044184098
-0.27079495787620544 -0.3057524263858795 -0.04624141752719879 -86.11273956298828 -23.57780647277832 -24.77867889404297  738318.7044185183
-0.27337130904197693 -0.3183603882789612 -0.0537068173289299 -87.46965789794922 -31.974496841430664 -5.733043670654297  738318.7044186383
-0.2761072814464569 -0.3302978575229645 -0.061847735196352005 -81.81853485107422 -39.84214782714844 18.00550079345703  738318.7044187519
-0.2794308066368103 -0.3414553999900818 -0.07052123546600342 -66.21290588378906 -44.45157241821289 47.87710189819336  738318.7044188636
-0.28361615538597107 -0.35193732380867004 -0.07945293188095093 -45.43281936645508 -41.787166595458984 78.76477813720703  738318.7044189876
-0.28869953751564026 -0.3619126081466675 -0.08842206001281738 -27.53236961364746 -31.605728149414062 103.90780639648438  738318.7044190968
-0.2945413887500763 -0.3715896010398865 -0.09732472896575928 -14.764276504516602 -16.804048538208008 122.52694702148438  738318.704419211
-0.3009457588195801 -0.3811406195163727 -0.10619024187326431 -5.590576171875 -0.8441329002380371 136.97122192382812  738318.7044193468
-0.16148950159549713 -0.4592128098011017 -0.024269718676805496 1.8030451536178589 12.825766563415527 147.2222137451172  738318.7044194435
-0.16303817927837372 -0.4728267192840576 -0.029474198818206787 8.042306900024414 27.204790115356445 157.7066192626953  738318.7044195594
-0.1642475724220276 -0.48663637042045593 -0.03461823612451553 13.341828346252441 39.40625 167.28355407714844  738318.7044196778
-0.16497725248336792 -0.5005398988723755 -0.039824120700359344 17.19175148010254 49.43876266479492 177.1990966796875  738318.7044197895
-0.1650753915309906 -0.5143693685531616 -0.04520086199045181 18.28534698486328 57.603763580322266 -170.66294860839844  738318.7044199061
-0.16444629430770874 -0.5279059410095215 -0.05084981396794319 14.35388469696045 63.49894714355469 -153.82644653320312  738318.7044200167
-0.1630934476852417 -0.5409277081489563 -0.05685845762491226 4.786440849304199 66.24391174316406 -131.67901611328125  738318.7044201329
-0.16111931204795837 -0.5532642006874084 -0.06328275054693222 -6.08651065826416 64.76383209228516 -108.82644653320312  738318.7044202549
-0.15867291390895844 -0.5648132562637329 -0.07013304531574249 -13.087569236755371 59.62855911254883 -90.87020111083984  738318.7044203709
-0.1559104025363922 -0.5755446553230286 -0.07737355679273605 -16.25342559814453 51.971221923828125 -78.16285705566406  738318.7044204852
-0.15295694768428802 -0.5855054259300232 -0.08494517207145691 -17.585851669311523 42.6916389465332 -68.95960998535156  738318.7044206182
0.08167976886034012 -0.583250880241394 -0.015256308950483799 -18.70440673828125 26.212575912475586 -63.60040283203125  738318.7044207167
0.09332269430160522 -0.5925919413566589 -0.023159127682447433 -19.473878860473633 15.288397789001465 -58.411407470703125  738318.7044208309
0.10648456960916519 -0.6025180816650391 -0.03208727762103081 -21.27848243713379 2.9605634212493896 -53.56916809082031  738318.7044209479
0.11894681304693222 -0.6113727688789368 -0.04045324772596359 -23.691617965698242 -8.195727348327637 -49.58557891845703  738318.7044210655
0.13202603161334991 -0.6201251745223999 -0.04904501885175705 -26.608875274658203 -18.918672561645508 -45.77330017089844  738318.7044211862
0.14588718116283417 -0.6288007497787476 -0.057916875928640366 -29.77512550354004 -28.9827823638916 -41.99054718017578  738318.7044213023
0.1606457233428955 -0.6373853087425232 -0.06717349588871002 -32.900367736816406 -38.30987548828125 -38.174068450927734  738318.7044214099
0.176242858171463 -0.6458548307418823 -0.07703729718923569 -35.73879623413086 -47.46683883666992 -33.056419372558594  738318.7044215323
0.19164618849754333 -0.6543677449226379 -0.08834115415811539 -46.48297119140625 -64.58056640625 -28.522626876831055  738318.7044216444
0.20633883774280548 -0.6634187698364258 -0.10148856043815613 -128.89627075195312 -80.32223510742188 -92.689208984375  738318.7044218403
0.38633790612220764 -0.668613612651825 -0.05566760525107384 178.42672729492188 -66.46109771728516 -128.4903564453125  738318.7044218805
0.41171443462371826 -0.6751900911331177 -0.06978669762611389 154.85308837890625 -45.20263671875 -136.8218536376953  738318.7044219949
0.4384930729866028 -0.6801157593727112 -0.08685946464538574 146.2915802001953 -24.321189880371094 -132.9590301513672  738318.7044221042
0.4660353362560272 -0.6838077902793884 -0.10641425102949142 142.2035675048828 -7.138218879699707 -122.2829360961914  738318.7044222273
0.4933333396911621 -0.6862707138061523 -0.12843303382396698 131.08924865722656 10.19277572631836 -111.53301239013672  738318.7044223441
0.5198295712471008 -0.6875746846199036 -0.15356597304344177 113.36309814453125 24.082387924194336 -95.98433685302734  738318.7044224491
0.5454878807067871 -0.687917172908783 -0.18174535036087036 89.58140563964844 31.2613468170166 -74.60758209228516  738318.7044225695
0.5704508423805237 -0.6874393820762634 -0.21272018551826477 63.42562484741211 28.789703369140625 -51.55276870727539  738318.7044226807
0.5950793027877808 -0.6861498355865479 -0.24643376469612122 40.84934616088867 17.7291259765625 -33.35604476928711  738318.7044228028
0.6197916865348816 -0.6839594841003418 -0.2830406427383423 22.839038848876953 2.3392181396484375 -22.129749298095703  738318.7044229116
0.6449414491653442 -0.6807949542999268 -0.32262474298477173 6.724930763244629 -14.39161205291748 -16.63571548461914  738318.7044231065
0.7317555546760559 -0.6461156606674194 -0.14636918902397156 -11.473039627075195 -47.65727996826172 -10.031620979309082  738318.7044231584
0.765008807182312 -0.6333134174346924 -0.18710817396640778 -36.390750885009766 -60.894405364990234 -20.01719856262207  738318.704423263
0.800075113773346 -0.6179219484329224 -0.23102806508541107 -76.20780181884766 -68.06047058105469 -45.874996185302734  738318.7044233888
0.836818516254425 -0.5996565818786621 -0.27841025590896606 -119.20223236083984 -66.05786895751953 -75.21665954589844  738318.7044234942
0.8749750256538391 -0.5783563852310181 -0.3294052183628082 -147.60035705566406 -58.89422607421875 -90.03768157958984  738318.7044236059
0.914199709892273 -0.5540153384208679 -0.38407188653945923 -166.1757049560547 -50.78206253051758 -94.96338653564453  738318.7044237239
0.9540827870368958 -0.5267858505249023 -0.44241172075271606 179.7633514404297 -43.418827056884766 -95.0674057006836  738318.7044238487
0.9942426681518555 -0.4971245229244232 -0.5040651559829712 165.7344207763672 -36.60630798339844 -93.01258850097656  738318.7044239532
1.0347355604171753 -0.4651632010936737 -0.5688674449920654 146.60800170898438 -28.500221252441406 -92.40387725830078  738318.7044241509
1.0369435548782349 -0.5790848731994629 -0.28097474575042725 121.2614517211914 -14.588889122009277 -89.42271423339844  738318.7044241831
1.0928305387496948 -0.5521540641784668 -0.34096041321754456 105.22840118408203 -15.155534744262695 -91.3498306274414  738318.7044242955
1.1488571166992188 -0.5248176455497742 -0.4047084152698517 91.22411346435547 -14.962894439697266 -94.341064453125  738318.7044244225
1.2046254873275757 -0.49732446670532227 -0.4712965786457062 78.65510559082031 -13.366461753845215 -98.06979370117188  738318.7044245317
1.2601828575134277 -0.46978628635406494 -0.5401589870452881 67.49845123291016 -10.273932456970215 -101.81099700927734  738318.7044246593
1.3156774044036865 -0.4422110617160797 -0.6109467148780823 57.6668586730957 -6.092393398284912 -105.16288757324219  738318.7044247757
1.3712027072906494 -0.41456928849220276 -0.6834115386009216 49.01652908325195 -1.3172436952590942 -107.7922592163086  738318.7044248814
1.4266083240509033 -0.3867416977882385 -0.757145345211029 41.77849578857422 3.9898898601531982 -109.80778503417969  738318.7044250083
1.481008529663086 -0.35817304253578186 -0.8306934833526611 42.5291862487793 3.984503746032715 -108.28682708740234  738318.7044251107
1.5335239171981812 -0.32885485887527466 -0.9030259251594543 46.21737289428711 3.2267394065856934 -105.92241668701172  738318.7044252309
1.5851976871490479 -0.29930171370506287 -0.9754592776298523 50.08768844604492 2.2994744777679443 -102.70063018798828  738318.7044254335
1.3211857080459595 -0.38733959197998047 -0.36970627307891846 48.129886627197266 -1.3649770021438599 -88.13187408447266  738318.7044254687
1.3690606355667114 -0.3535454273223877 -0.4104389250278473 52.66231155395508 -1.7019274234771729 -85.63570404052734  738318.7044255761
1.416191577911377 -0.3198721408843994 -0.45148366689682007 57.584625244140625 -1.7637816667556763 -83.09678649902344  738318.7044256887
1.4623528718948364 -0.28640851378440857 -0.49283018708229065 61.73356246948242 -1.7680119276046753 -79.6333236694336  738318.7044258136
1.5074518918991089 -0.2532449960708618 -0.5345165729522705 65.50752258300781 -1.0785809755325317 -76.43372344970703  738318.7044259334
1.5515297651290894 -0.22044230997562408 -0.5766650438308716 69.56018829345703 0.011905157007277012 -73.72223663330078  738318.7044260346
1.5945988893508911 -0.1880599558353424 -0.6194033622741699 73.60807037353516 1.1456162929534912 -70.99016571044922  738318.7044261551
1.6366933584213257 -0.15614266693592072 -0.6628385782241821 77.4035415649414 2.424783706665039 -68.530029296875  738318.7044262784
1.6778558492660522 -0.1247178167104721 -0.7070685029029846 80.81119537353516 3.9683775901794434 -66.66767883300781  738318.7044264014
1.460413932800293 -0.23405443131923676 -0.33645373582839966 76.15839385986328 7.239589691162109 -57.3948974609375  738318.704426506
1.4997236728668213 -0.20648671686649323 -0.36950814723968506 78.51976776123047 8.89145278930664 -56.20178985595703  738318.704426624
1.538069486618042 -0.17961978912353516 -0.40333297848701477 80.57136535644531 10.531895637512207 -55.18355941772461  738318.704426734
1.5754117965698242 -0.15349683165550232 -0.4379637539386749 82.42219543457031 12.115686416625977 -54.368011474609375  738318.7044268551
1.6117169857025146 -0.1281566470861435 -0.47343680262565613 84.2249526977539 13.7135009765625 -53.792625427246094  738318.7044269707
1.6469817161560059 -0.10361921787261963 -0.5097963809967041 85.99395751953125 15.361318588256836 -53.575233459472656  738318.7044270847
1.681211233139038 -0.07988915592432022 -0.5470881462097168 87.47705078125 16.994888305664062 -53.26028060913086  738318.704427196
1.7144124507904053 -0.05697639659047127 -0.5853389501571655 88.53153228759766 18.547229766845703 -52.69427490234375  738318.7044273202
1.7466105222702026 -0.03488009423017502 -0.6245611906051636 89.0813217163086 20.05086326599121 -51.87969207763672  738318.7044274212
1.7778252363204956 -0.013604380190372467 -0.6647565364837646 89.0709457397461 21.516895294189453 -50.862430572509766  738318.704427598
1.8080486059188843 0.006826229393482208 -0.705917239189148 88.413330078125 22.9971981048584 -49.56296157836914  738318.7044276614
1.5962300300598145 -0.15966849029064178 -0.38471344113349915 80.08367156982422 25.927635192871094 -42.72163009643555  738318.7044277771
1.6241378784179688 -0.14577512443065643 -0.417285680770874 78.21817779541016 27.135095596313477 -40.657867431640625  738318.7044278912
1.6511050462722778 -0.13281521201133728 -0.4505893886089325 75.97482299804688 28.237476348876953 -38.458984375  738318.704428003
1.677142858505249 -0.12080038338899612 -0.4845831096172333 73.23950958251953 29.195547103881836 -36.012351989746094  738318.7044281184
1.7022730112075806 -0.1097290888428688 -0.5192201733589172 69.99849700927734 30.054824829101562 -33.43705368041992  738318.7044282352
1.726528286933899 -0.0995807945728302 -0.5544565320014954 66.26494598388672 30.7808837890625 -30.81622314453125  738318.7044283557
1.7499399185180664 -0.09032700955867767 -0.5902451276779175 62.06268310546875 31.374095916748047 -28.253372192382812  738318.7044284712
1.7725390195846558 -0.08192867040634155 -0.6265397071838379 57.404136657714844 31.85822296142578 -25.762367248535156  738318.7044285877
1.7943389415740967 -0.07435384392738342 -0.6632817387580872 52.38786697387695 32.2430305480957 -23.35297393798828  738318.7044286999
1.8153494596481323 -0.06756189465522766 -0.7004063129425049 47.11565017700195 32.596580505371094 -21.140697479248047  738318.7044289028
1.8355815410614014 -0.061498723924160004 -0.7378506660461426 41.79411315917969 32.995887756347656 -19.181007385253906  738318.7044289452
1.6069271564483643 -0.2248617708683014 -0.41559746861457825 30.686481475830078 32.09911346435547 -12.804837226867676  738318.704429049
1.6234558820724487 -0.2234569638967514 -0.44365280866622925 25.5484561920166 32.623104095458984 -11.261528968811035  738318.7044291644
1.6392377614974976 -0.22252431511878967 -0.4717257022857666 20.47199249267578 33.306907653808594 -9.82496452331543  738318.7044292814
1.6542690992355347 -0.22196833789348602 -0.4997865557670593 15.428184509277344 34.161502838134766 -8.435885429382324  738318.7044293969
1.6685476303100586 -0.22168880701065063 -0.5278247594833374 10.36676025390625 35.168766021728516 -7.047467231750488  738318.7044295099
1.682076096534729 -0.22158312797546387 -0.5558522343635559 5.278926372528076 36.334228515625 -5.618606090545654  738318.7044296167
1.6948521137237549 -0.22155113518238068 -0.5838878750801086 0.14740125834941864 37.6269416809082 -4.084205627441406  738318.7044297339
1.7068676948547363 -0.22149431705474854 -0.6119568347930908 -5.050845623016357 38.96244430541992 -2.428046226501465  738318.7044299092
1.5301710367202759 -0.3271201252937317 -0.36425140500068665 -14.227871894836426 35.712562561035156 0.5739649534225464  738318.7044299769
1.539629578590393 -0.3284086287021637 -0.38532525300979614 -19.50163459777832 36.88538360595703 2.5227346420288086  738318.7044300871
1.5483869314193726 -0.32934412360191345 -0.4065084755420685 -24.914108276367188 38.001888275146484 4.632343292236328  738318.7044302034
1.5564446449279785 -0.3298516869544983 -0.4278702139854431 -30.42884635925293 38.96239471435547 6.872431755065918  738318.7044303198
1.5638015270233154 -0.32985812425613403 -0.4494771659374237 -36.07238006591797 39.767215728759766 9.234148979187012  738318.7044304318
1.5704535245895386 -0.3292904794216156 -0.47139525413513184 -41.86387252807617 40.43226623535156 11.720538139343262  738318.7044305592
1.576393961906433 -0.32807403802871704 -0.49369287490844727 -47.790992736816406 40.97129821777344 14.33608341217041  738318.7044306638
1.5816271305084229 -0.32614684104919434 -0.5164529085159302 -53.743892669677734 41.325321197509766 17.00297737121582  738318.7044307819
1.586165428161621 -0.3234599828720093 -0.5397626161575317 -59.67460250854492 41.515785217285156 19.732139587402344  738318.7044309049
1.590027093887329 -0.3199790120124817 -0.5637128353118896 -65.56771850585938 41.55717468261719 22.549955368041992  738318.7044310134
1.5932327508926392 -0.31568270921707153 -0.5883946418762207 -71.42512512207031 41.441558837890625 25.4481143951416  738318.7044311856
1.4204742908477783 -0.3967900574207306 -0.3463502824306488 -76.81844329833984 38.93301010131836 23.660524368286133  738318.7044312456
1.4217331409454346 -0.39176419377326965 -0.3658856749534607 -82.40418243408203 38.43241882324219 26.513973236083984  738318.7044313479
1.4224584102630615 -0.3858579695224762 -0.3863842189311981 -87.79956817626953 37.69845199584961 29.30997657775879  738318.7044314706
1.4226542711257935 -0.379061222076416 -0.40792593359947205 -92.83177947998047 36.74919509887695 31.893484115600586  738318.70443158
1.4223195314407349 -0.37135806679725647 -0.43058428168296814 -97.42769622802734 35.63526153564453 34.2718620300293  738318.7044317065
1.4214518070220947 -0.36274003982543945 -0.45442724227905273 -101.52523040771484 34.39693832397461 36.39503860473633  738318.704431821
1.4200568199157715 -0.3532189428806305 -0.47951239347457886 -105.1774673461914 33.07490158081055 38.26250076293945  738318.7044319262
1.4179304838180542 -0.34173664450645447 -0.5085909366607666 -108.79821014404297 31.606168746948242 40.023555755615234  738318.7044320509
1.4154754877090454 -0.3304150700569153 -0.5364408493041992 -111.7695083618164 30.282297134399414 41.38225555419922  738318.7044321967
1.2696521282196045 -0.3751133382320404 -0.34739360213279724 -116.22705841064453 30.313703536987305 38.91033172607422  738318.7044322833
1.2673158645629883 -0.3643896281719208 -0.37161538004875183 -133.95123291015625 26.11697769165039 54.0775032043457  738318.7044324017
1.2660921812057495 -0.3559753894805908 -0.3951382637023926 -159.0941925048828 14.205100059509277 71.00030517578125  738318.7044325143
1.2649770975112915 -0.3486107587814331 -0.4185795187950134 -179.80484008789062 2.454528570175171 75.2210464477539  738318.7044326292
1.2650154829025269 -0.34542566537857056 -0.4404846429824829 165.7745361328125 4.076745510101318 76.36434936523438  738318.7044327466
1.2664111852645874 -0.3500230312347412 -0.4574526846408844 170.42352294921875 8.379729270935059 76.84236907958984  738318.7044328536
1.2700581550598145 -0.359321266412735 -0.4732668399810791 176.18264770507812 10.450766563415527 76.1923599243164  738318.7044329733
1.2741222381591797 -0.3689047694206238 -0.4899667501449585 -178.16165161132812 12.989959716796875 75.94751739501953  738318.7044330991
1.278009057044983 -0.37811383605003357 -0.507636547088623 -173.13246154785156 15.847452163696289 75.499755859375  738318.7044332083
1.2817634344100952 -0.3873635530471802 -0.5261569023132324 -168.84527587890625 18.66840934753418 74.34033966064453  738318.7044334203
1.2854403257369995 -0.39679381251335144 -0.5455488562583923 -165.17098999023438 21.500038146972656 72.64862823486328  738318.704433455
1.1634082794189453 -0.4032234251499176 -0.34978023171424866 -164.40345764160156 24.25259780883789 68.73613739013672  738318.7044335592
1.1640722751617432 -0.4102674424648285 -0.36542704701423645 -160.75611877441406 27.460338592529297 66.8438491821289  738318.7044336722
1.1647546291351318 -0.41720032691955566 -0.3821561932563782 -156.5072784423828 30.5035343170166 64.68527221679688  738318.7044337795
1.1653997898101807 -0.42405200004577637 -0.400027334690094 -151.51513671875 33.13632583618164 62.06007766723633  738318.7044339066
1.1659660339355469 -0.4308421015739441 -0.4190569519996643 -145.7711181640625 35.302398681640625 58.9174690246582  738318.7044340222
1.1664555072784424 -0.4375467300415039 -0.43920910358428955 -139.45706176757812 37.226383209228516 55.35975646972656  738318.7044341343
1.1668990850448608 -0.4441414177417755 -0.46041804552078247 -132.74502563476562 39.06895446777344 51.47709655761719  738318.7044342539
1.1673541069030762 -0.45063701272010803 -0.4825197756290436 -126.03894805908203 40.967376708984375 47.309268951416016  738318.7044343682
1.1678478717803955 -0.4575449526309967 -0.5048995614051819 -125.15017700195312 41.120262145996094 45.579105377197266  738318.7044344853
1.168105959892273 -0.4653516113758087 -0.5269820690155029 -130.44091796875 38.42683029174805 45.72720718383789  738318.7044346812
1.167944073677063 -0.47356855869293213 -0.5491846203804016 -135.37973022460938 35.04024124145508 45.05410385131836  738318.704434727
1.0821033716201782 -0.45332643389701843 -0.336906373500824 -137.8852996826172 31.050987243652344 39.832611083984375  738318.7044348329
1.0805238485336304 -0.4602143466472626 -0.3550416827201843 -142.66880798339844 28.192541122436523 39.873680114746094  738318.7044349484
1.079070806503296 -0.46704670786857605 -0.37393635511398315 -147.5421142578125 25.200212478637695 39.70353698730469  738318.7044350582
1.0777674913406372 -0.4732514023780823 -0.3926619589328766 -153.5364532470703 21.559497833251953 40.14044189453125  738318.7044351703
1.0766756534576416 -0.47802868485450745 -0.41032537817955017 -160.41793823242188 16.801334381103516 40.776771545410156  738318.7044352966
1.0755449533462524 -0.4816952347755432 -0.42678502202033997 -167.77001953125 11.605405807495117 41.183311462402344  738318.7044354043
1.0738002061843872 -0.4852200448513031 -0.44183704257011414 -176.30560302734375 6.283275604248047 41.278682708740234  738318.7044355215
1.0711547136306763 -0.48942258954048157 -0.45524054765701294 176.95445251464844 3.0583596229553223 40.8914909362793  738318.7044357072
1.0680043697357178 -0.49527835845947266 -0.46704113483428955 175.99578857421875 3.868779420852661 40.31367492675781  738318.7044357667
1.0143896341323853 -0.46624451875686646 -0.29972633719444275 174.47085571289062 6.724839210510254 36.15732192993164  738318.7044358733
1.010109305381775 -0.4733275771141052 -0.3076499104499817 174.78933715820312 6.606869697570801 35.72798538208008  738318.7044359868
1.0058919191360474 -0.4804452955722809 -0.31660425662994385 175.2349395751953 6.704678535461426 35.43086624145508  738318.7044361002
1.0016974210739136 -0.4875161647796631 -0.32656434178352356 175.66574096679688 6.862987995147705 35.189735412597656  738318.7044362166
0.9974938035011292 -0.4945908784866333 -0.3374544084072113 175.9082489013672 6.936705589294434 34.89729309082031  738318.7044363306
0.9932606816291809 -0.5016875267028809 -0.3492393493652344 175.8517608642578 7.041557312011719 34.545143127441406  738318.7044364465
0.9890070557594299 -0.5088413953781128 -0.36183151602745056 175.6495819091797 7.22784423828125 34.20392990112305  738318.7044365575
0.9847248792648315 -0.5163186192512512 -0.37477782368659973 176.20254516601562 7.528890609741211 33.976627349853516  738318.7044366777
0.9803450107574463 -0.5246278643608093 -0.3872734308242798 177.6272735595703 8.696232795715332 33.969764709472656  738318.7044367915
0.9757053852081299 -0.5339849591255188 -0.3986246585845947 179.26083374023438 10.326716423034668 34.158935546875  738318.7044369982
0.970618724822998 -0.5439181923866272 -0.4087464511394501 -179.35626220703125 12.140968322753906 34.46437072753906  738318.7044370361
0.9469674825668335 -0.49019014835357666 -0.25366321206092834 -179.47569274902344 13.820489883422852 30.438766479492188  738318.7044371348
0.9406217336654663 -0.49750450253486633 -0.2596001625061035 -178.50180053710938 14.945889472961426 30.097455978393555  738318.704437257
0.9341720342636108 -0.5046521425247192 -0.26592087745666504 -177.65121459960938 15.348358154296875 29.69835662841797  738318.7044373814
0.9271716475486755 -0.5123537182807922 -0.2733049988746643 -177.2323760986328 15.45637035369873 29.573163986206055  738318.7044374828
0.9209190607070923 -0.5192124843597412 -0.28032079339027405 -177.3686981201172 15.22519588470459 29.75640106201172  738318.7044376028
0.9145907759666443 -0.5259178280830383 -0.28749680519104004 -177.8522491455078 14.454113960266113 29.96721076965332  738318.7044377237
0.9079757928848267 -0.5324534773826599 -0.2946740686893463 -178.7373046875 13.402432441711426 30.004940032958984  738318.7044378363
0.9009592533111572 -0.5388301014900208 -0.3017273247241974 179.77224731445312 12.434846878051758 29.87924575805664  738318.7044380131
0.9019338488578796 -0.49188676476478577 -0.1925508975982666 177.46890258789062 12.27645492553711 24.55206298828125  738318.7044380725
0.894189178943634 -0.4964965283870697 -0.19684675335884094 175.78819274902344 11.547158241271973 24.430042266845703  738318.7044381817
0.8861809968948364 -0.5013896822929382 -0.2009747177362442 175.0199737548828 10.998849868774414 24.373273849487305  738318.7044383014
0.8780748844146729 -0.5068451762199402 -0.20496220886707306 174.88755798339844 10.757367134094238 24.285856246948242  738318.7044384206
0.8698949217796326 -0.5128355026245117 -0.20900824666023254 175.29281616210938 10.796746253967285 24.211315155029297  738318.7044385256
0.8615318536758423 -0.5191105008125305 -0.2133180946111679 176.02879333496094 11.001387596130371 24.278661727905273  738318.7044386405
0.8528746962547302 -0.5254482626914978 -0.2178768515586853 176.62937927246094 11.365931510925293 24.45222282409668  738318.7044387646
0.8438683748245239 -0.5317164063453674 -0.22246664762496948 176.83135986328125 11.935811042785645 24.59819793701172  738318.7044388718
0.8344974517822266 -0.5378282070159912 -0.2268812358379364 176.71067810058594 12.694725036621094 24.670299530029297  738318.7044389873
0.82477205991745 -0.5437895655632019 -0.23109039664268494 176.30555725097656 13.371625900268555 24.699968338012695  738318.704439133
0.839641809463501 -0.49820083379745483 -0.15105603635311127 175.66183471679688 15.003694534301758 18.697412490844727  738318.7044393294
0.8294072151184082 -0.5025767087936401 -0.15359537303447723 175.22604370117188 14.77066421508789 18.722524642944336  738318.7044395946
0.8191239237785339 -0.5070111751556396 -0.1562102735042572 174.9737091064453 14.60759162902832 18.749614715576172  738318.7044397909
0.808696448802948 -0.5115693807601929 -0.15891548991203308 174.9569091796875 14.253154754638672 18.712682723999023  738318.704439964
0.7979759573936462 -0.5162505507469177 -0.1616661697626114 175.1103515625 13.811677932739258 18.663583755493164  738318.7044400796
0.7869108319282532 -0.5209813117980957 -0.16438116133213043 175.22117614746094 13.51734447479248 18.655208587646484  738318.7044401257
0.7755013704299927 -0.5256825089454651 -0.16702896356582642 175.1480255126953 13.459573745727539 18.679065704345703  738318.7044401718
0.7637470960617065 -0.5303144454956055 -0.1696588099002838 174.95101928710938 13.575520515441895 18.706602096557617  738318.7044404472
0.7516618371009827 -0.5349025130271912 -0.1723347157239914 174.68606567382812 13.743635177612305 18.730253219604492  738318.7044405857
0.7392943501472473 -0.539501965045929 -0.17506246268749237 174.42559814453125 13.970115661621094 18.770252227783203  738318.7044406087
0.7266876101493835 -0.5441486239433289 -0.17780281603336334 174.27601623535156 14.244283676147461 18.82101058959961  738318.7044406433
0.7138329744338989 -0.5488532781600952 -0.180530846118927 174.26455688476562 14.324447631835938 18.836109161376953  738318.704440701
0.757806122303009 -0.49872466921806335 -0.11654537916183472 175.0138702392578 16.364356994628906 11.342498779296875  738318.7044408857
0.7447167038917542 -0.5019875764846802 -0.11818493157625198 174.9487762451172 16.316831588745117 11.368743896484375  738318.7044410357
0.7313436269760132 -0.5051758885383606 -0.11985406279563904 174.79379272460938 16.222625732421875 11.387502670288086  738318.704441082
0.7176350355148315 -0.5082975029945374 -0.1215573325753212 174.60218811035156 16.062349319458008 11.381880760192871  738318.7044411282
0.7035922408103943 -0.5113816857337952 -0.12326791137456894 174.40371704101562 16.00815773010254 11.38770866394043  738318.704441336
0.6892327070236206 -0.5144613981246948 -0.12497624009847641 174.24281311035156 16.06017303466797 11.414015769958496  738318.7044414949
0.6745498776435852 -0.5175509452819824 -0.12670978903770447 174.16616821289062 16.10294532775879 11.44104290008545  738318.7044415063
0.6595511436462402 -0.5206360220909119 -0.12848834693431854 174.13043212890625 16.1486873626709 11.460405349731445  738318.7044415753
