% x y z r p yw  738318.7056554788
1.5126758813858032 0.005930064711719751 0.023926107212901115 0.20356793701648712 1.08693265914917 0.06316179037094116  738318.7056574594
1.512351155281067 0.004792443010956049 0.02109006978571415 0.24751117825508118 1.1026813983917236 0.06277961283922195  738318.7056575916
1.5123610496520996 0.004658267367631197 0.02094324119389057 0.24655546247959137 1.1022124290466309 0.06351744383573532  738318.7056576954
1.5065876245498657 0.0049095735885202885 0.02079547755420208 0.2300792783498764 1.3306165933609009 0.06199381500482559  738318.7056577951
1.5056027173995972 0.004153606481850147 0.020595885813236237 0.255227655172348 1.3578717708587646 0.06132463738322258  738318.7056579111
1.5068999528884888 0.005354019347578287 0.024767635390162468 0.19817769527435303 1.2874618768692017 0.06298314034938812  738318.7056580384
1.5068426132202148 0.004963831510394812 0.02485266514122486 0.2094712108373642 1.27655827999115 0.06317206472158432  738318.7056581557
1.5052789449691772 0.00418491568416357 0.024883298203349113 0.2361089587211609 1.3291537761688232 0.06198311597108841  738318.705658261
1.5055863857269287 0.004724405240267515 0.024999093264341354 0.20943859219551086 1.3029357194900513 0.062062691897153854  738318.7056583731
1.5051372051239014 0.0058550466783344746 0.025081489235162735 0.15833476185798645 1.3085601329803467 0.06298702210187912  738318.7056584972
1.5069199800491333 0.004132181406021118 0.022363487631082535 0.23032855987548828 1.2242754697799683 0.06240023300051689  738318.7056586193
1.5051136016845703 0.004302941728383303 0.022268103435635567 0.21739764511585236 1.2916465997695923 0.06213018670678139  738318.7056587335
1.5068366527557373 0.004876150283962488 0.022278785705566406 0.18957248330116272 1.2074376344680786 0.06374788284301758  738318.7056588511
1.5050082206726074 0.004063510801643133 0.022177327424287796 0.2197086364030838 1.2745860815048218 0.06394960731267929  738318.7056589593
1.5066601037979126 0.004809095989912748 0.025235915556550026 0.18249449133872986 1.1884664297103882 0.06359677761793137  738318.7056590817
1.5066328048706055 0.003778219921514392 0.02532724104821682 0.222717747092247 1.1819522380828857 0.06252020597457886  738318.7056591987
1.5059758424758911 0.003746564732864499 0.025423288345336914 0.21868769824504852 1.2006350755691528 0.06246000900864601  738318.7056593053
1.5059758424758911 0.003746564732864499 0.025423288345336914 0.21868769824504852 1.2006350755691528 0.06246000900864601  738318.7056594304
1.503861665725708 0.004643511492758989 0.0255858413875103 0.17202550172805786 1.269374132156372 0.06412232667207718  738318.7056595406
1.505089282989502 0.004910637158900499 0.022616587579250336 0.1621791273355484 1.220798134803772 0.06436948478221893  738318.70565966
1.5048549175262451 0.006046016700565815 0.022480227053165436 0.11020568013191223 1.2104296684265137 0.06646057218313217  738318.7056597902
1.505562424659729 0.004339402075856924 0.02251201868057251 0.18478795886039734 1.1795744895935059 0.0648350790143013  738318.7056598914
1.5049837827682495 0.006063877604901791 0.022373680025339127 0.10700754821300507 1.1883790493011475 0.06903810054063797  738318.7056600099
1.505541205406189 0.004851233679801226 0.026047835126519203 0.1583285629749298 1.1577234268188477 0.06799639761447906  738318.7056601287
1.5023316144943237 0.003989913500845432 0.0262755099684 0.19109290838241577 1.2758742570877075 0.0660259798169136  738318.705660228
1.5053590536117554 0.003980246838182211 0.026516977697610855 0.18721868097782135 1.138454556465149 0.06773089617490768  738318.7056603418
1.505338430404663 0.004176513757556677 0.026657037436962128 0.17545877397060394 1.1341321468353271 0.06747439503669739  738318.7056604644
1.5053820610046387 0.0041491989977657795 0.022892462089657784 0.17402713000774384 1.131685733795166 0.06801113486289978  738318.7056605757
1.5020936727523804 0.007740828208625317 0.022814037278294563 0.025571484118700027 1.2624547481536865 0.07030175626277924  738318.7056607017
1.502824306488037 0.006200985983014107 0.0228093471378088 0.09513258934020996 1.2206553220748901 0.06949916481971741  738318.7056608032
1.5019917488098145 0.006210539489984512 0.02272200584411621 0.09668329358100891 1.245299220085144 0.06974944472312927  738318.7056609376
1.5037353038787842 0.007221135310828686 0.022709092125296593 0.05709661543369293 1.1631375551223755 0.07052396237850189  738318.7056610418
1.5020129680633545 0.006014449521899223 0.024786850437521935 0.11019865423440933 1.2239896059036255 0.06926579028367996  738318.7056611504
1.5023750066757202 0.006426615174859762 0.024844776839017868 0.0956176221370697 1.1979666948318481 0.07005513459444046  738318.7056612774
1.5017231702804565 0.00622814055532217 0.0248836949467659 0.10574653744697571 1.2160615921020508 0.06957849860191345  738318.7056613931
1.5025054216384888 0.006033226847648621 0.024959677830338478 0.11469528824090958 1.173161506652832 0.06922166794538498  738318.705661512
1.5030182600021362 0.006045597605407238 0.021838601678609848 0.11518270522356033 1.1491315364837646 0.06846315413713455  738318.7056616282
1.5027316808700562 0.0060235122218728065 0.021835671737790108 0.11611563712358475 1.1614675521850586 0.06832360476255417  738318.7056617353
1.5037050247192383 0.007232946343719959 0.021725043654441833 0.06571724265813828 1.111629605293274 0.06865444779396057  738318.7056618445
1.5036932229995728 0.007048463448882103 0.021607911214232445 0.07645896822214127 1.1070624589920044 0.06912447512149811  738318.7056619691
1.503684401512146 0.006041276268661022 0.02150205709040165 0.12342586368322372 1.1013875007629395 0.06837064772844315  738318.7056620794
1.5035881996154785 0.008083094842731953 0.02363002300262451 0.03742570802569389 1.0966345071792603 0.07042482495307922  738318.7056621996
1.5025403499603271 0.010171156376600266 0.023604298010468483 -0.0459405817091465 1.1373392343521118 0.07049501687288284  738318.7056623179
1.502102017402649 0.011246660724282265 0.0235814917832613 -0.08218725025653839 1.149703025817871 0.07089322805404663  738318.7056624267
1.5022845268249512 0.011289399117231369 0.02360507845878601 -0.07269629091024399 1.133888840675354 0.06984008848667145  738318.7056625497
1.5027570724487305 0.010048850439488888 0.02149379625916481 -0.009726212359964848 1.1120154857635498 0.06820740550756454  738318.7056626627
1.5025306940078735 0.009445074945688248 0.02139994315803051 0.024565178900957108 1.1163763999938965 0.06776764243841171  738318.7056627739
-0.39073920249938965 -0.09694043546915054 0.021530654281377792 0.4146554470062256 1.6783419847488403 -36.933433532714844  738318.7056629008
-0.39088231325149536 -0.0966423973441124 0.021483521908521652 0.4082798361778259 1.6501775979995728 -36.89704895019531  738318.7056630033
-0.39081937074661255 -0.09616744518280029 0.0213793832808733 0.3176809251308441 1.6550705432891846 -36.85932540893555  738318.7056631302
-0.3906872272491455 -0.09580495208501816 0.023955881595611572 0.2876209318637848 1.6208724975585938 -36.82284164428711  738318.7056632461
-0.3909918963909149 -0.09524264186620712 0.023978903889656067 0.31095513701438904 1.675470232963562 -36.78750228881836  738318.70566335
-0.39077553153038025 -0.09522844105958939 0.024146372452378273 0.31398874521255493 1.6039782762527466 -36.7515983581543  738318.7056634768
-0.39069217443466187 -0.09482285380363464 0.024201028048992157 0.2999464273452759 1.5988073348999023 -36.71421432495117  738318.7056635831
-0.39067941904067993 -0.09448705613613129 0.021498901769518852 0.29908040165901184 1.5966309309005737 -36.676815032958984  738318.7056637043
-0.3893616497516632 -0.09280949831008911 0.021294118836522102 0.12676137685775757 1.6088937520980835 -36.63419723510742  738318.7056639494
-0.3899633288383484 -0.09224661439657211 0.021242957562208176 0.1750839501619339 1.65049409866333 -36.599449157714844  738318.7056639724
-0.3900389075279236 -0.09408526122570038 0.021479913964867592 0.09922262281179428 1.9390887022018433 -38.19132614135742  738318.7056640536
-0.39015835523605347 -0.09377330541610718 0.021532556042075157 0.13708283007144928 1.9254616498947144 -38.15461349487305  738318.7056641629
-0.39017072319984436 -0.09207672625780106 0.024564696475863457 0.07555433362722397 2.0006847381591797 -38.1153564453125  738318.7056642738
-0.39030954241752625 -0.09160655736923218 0.02474145218729973 0.10174679756164551 1.9896137714385986 -38.07862091064453  738318.705664397
-0.39009395241737366 -0.09080066531896591 0.024825837463140488 0.08530105650424957 1.9808785915374756 -38.04059982299805  738318.7056645089
-0.39021751284599304 -0.08958370983600616 0.024803828448057175 0.07116322964429855 2.0081520080566406 -38.00265884399414  738318.7056646302
-0.38957712054252625 -0.08980624377727509 0.022859634831547737 0.08387059718370438 1.9347611665725708 -37.96590042114258  738318.7056647486
-0.39024949073791504 -0.08995071798563004 0.022979946807026863 0.14911499619483948 1.9256806373596191 -37.930259704589844  738318.7056648824
-0.3894250988960266 -0.0876559317111969 0.022762125357985497 0.05327143892645836 1.9568785429000854 -37.8907470703125  738318.7056649768
-0.38938015699386597 -0.08685147017240524 0.02273385599255562 0.05240936949849129 1.9551347494125366 -37.85359191894531  738318.7056651105
-0.39014309644699097 -0.08932699263095856 0.022970471531152725 0.07361087948083878 2.222554922103882 -38.55220031738281  738318.7056652032
-0.39020633697509766 -0.08837705105543137 0.026013411581516266 0.0731901302933693 2.2220146656036377 -38.51601028442383  738318.705665323
-0.3902527689933777 -0.08747914433479309 0.026152964681386948 0.07251991331577301 2.220442056655884 -38.47862243652344  738318.7056654354
-0.3903118073940277 -0.08656847476959229 0.02629345841705799 0.07210252434015274 2.2195630073547363 -38.440975189208984  738318.7056655497
-0.3903828561306 -0.08564534038305283 0.026433171704411507 0.07156404852867126 2.218348503112793 -38.40419387817383  738318.7056656653
-0.39042016863822937 -0.08479078859090805 0.02324025332927704 0.0702325701713562 2.2153592109680176 -38.36565399169922  738318.7056657824
-0.3905145227909088 -0.08384949713945389 0.0231940820813179 0.06927768141031265 2.2130794525146484 -38.32805633544922  738318.7056658957
-0.3906235694885254 -0.08289624005556107 0.02314731851220131 0.06810671091079712 2.2106802463531494 -38.290077209472656  738318.7056660072
-0.390746146440506 -0.08193114399909973 0.023099392652511597 0.06861333549022675 2.209052562713623 -38.253013610839844  738318.7056662348
-0.39091888070106506 -0.0809042751789093 0.025290800258517265 0.0675087422132492 2.206233501434326 -38.21525573730469  738318.7056662694
-0.39158913493156433 -0.08395887166261673 0.025461744517087936 0.11515602469444275 2.437938690185547 -38.688045501708984  738318.7056663646
-0.39182940125465393 -0.08292505890130997 0.025536449626088142 0.11351817846298218 2.434873104095459 -38.64943313598633  738318.705666483
-0.39208748936653137 -0.08187669515609741 0.0256107896566391 0.11231920123100281 2.4331560134887695 -38.610260009765625  738318.7056665957
-0.39236342906951904 -0.08081413805484772 0.0256858691573143 0.11020699888467789 2.4304192066192627 -38.57231140136719  738318.7056667057
-0.39261698722839355 -0.07977665960788727 0.02308119833469391 0.10822508484125137 2.4279448986053467 -38.53266906738281  738318.7056668214
-0.3929225206375122 -0.07868890464305878 0.023004241287708282 0.10772216320037842 2.4254603385925293 -38.49578857421875  738318.7056669318
-0.3932434916496277 -0.07758639752864838 0.022927841171622276 0.10585442930459976 2.4232490062713623 -38.457401275634766  738318.705667056
-0.3935806155204773 -0.07646892219781876 0.022850194945931435 0.10448992997407913 2.420790195465088 -38.42002868652344  738318.7056671715
-0.39396145939826965 -0.07531779259443283 0.024390200152993202 0.10284603387117386 2.419426679611206 -38.38368225097656  738318.7056672947
-0.3943345844745636 -0.0741719901561737 0.024400709196925163 0.1017904058098793 2.4155402183532715 -38.3453483581543  738318.7056674226
-0.3946222960948944 -0.07828933745622635 0.024543114006519318 0.1815582662820816 2.585256576538086 -38.723331451416016  738318.7056675166
-0.39509904384613037 -0.0771360844373703 0.02455793507397175 0.18052296340465546 2.582059621810913 -38.68470764160156  738318.7056676346
-0.39559483528137207 -0.07596784085035324 0.024572184309363365 0.1798660159111023 2.5795297622680664 -38.64656066894531  738318.7056677433
-0.3960602879524231 -0.07481175661087036 0.02116076834499836 0.17970380187034607 2.577127456665039 -38.60881042480469  738318.7056678634
-0.3965899348258972 -0.07361650466918945 0.02098175697028637 0.17819221317768097 2.573962688446045 -38.570159912109375  738318.7056679802
-0.39713847637176514 -0.07240667939186096 0.020801829174160957 0.17745807766914368 2.5692331790924072 -38.530677795410156  738318.7056680963
-0.3977057933807373 -0.07118279486894608 0.020621733739972115 0.17618981003761292 2.5669615268707275 -38.493629455566406  738318.7056682108
-0.39834335446357727 -0.0699220597743988 0.023716161027550697 0.17483986914157867 2.564495801925659 -38.45621871948242  738318.7056683219
-0.3989538550376892 -0.06866466999053955 0.023714885115623474 0.17336057126522064 2.561116933822632 -38.41757583618164  738318.7056685798
-0.39958399534225464 -0.06739208847284317 0.023711254820227623 0.17352648079395294 2.5583648681640625 -38.379024505615234  738318.7056686375
-0.3989567458629608 -0.07299686223268509 0.023873386904597282 0.2652559280395508 2.6755645275115967 -38.71335220336914  738318.7056686722
-0.399667352437973 -0.07177888602018356 0.023873448371887207 0.2643510401248932 2.6749913692474365 -38.675498962402344  738318.7056687878
-0.40035346150398254 -0.07056433707475662 0.020378252491354942 0.2630666494369507 2.674889326095581 -38.63889694213867  738318.7056689039
-0.4011041224002838 -0.06931843608617783 0.020186450332403183 0.2604237198829651 2.6717262268066406 -38.599422454833984  738318.7056690252
-0.40187686681747437 -0.06805814802646637 0.019994808360934258 0.25923508405685425 2.6683661937713623 -38.56195068359375  738318.7056691252
-0.4026714563369751 -0.06678397953510284 0.019801847636699677 0.2564840316772461 2.6667397022247314 -38.523048400878906  738318.7056692415
-0.4035319685935974 -0.06547802686691284 0.022776667028665543 0.25407853722572327 2.664588212966919 -38.485748291015625  738318.7056693669
-0.40437209606170654 -0.06417553126811981 0.022753963246941566 0.25305527448654175 2.661275625228882 -38.448089599609375  738318.7056694782
-0.4052339494228363 -0.06285908073186874 0.02272947132587433 0.2520188093185425 2.658932685852051 -38.410797119140625  738318.7056696006
-0.4061180651187897 -0.06152784824371338 0.022702060639858246 0.2501138150691986 2.657792091369629 -38.37318420410156  738318.7056698559
-0.4070236086845398 -0.06018180400133133 0.022672638297080994 0.2487993687391281 2.653505325317383 -38.33530044555664  738318.705669914
-0.40509799122810364 -0.06713621318340302 0.019856803119182587 0.28956565260887146 2.8489739894866943 -38.5162353515625  738318.7056699598
-0.40606558322906494 -0.06585870683193207 0.019680462777614594 0.28861111402511597 2.8467423915863037 -38.47853469848633  738318.7056700751
-0.4070577323436737 -0.06456626206636429 0.019503410905599594 0.28752782940864563 2.8454129695892334 -38.44060134887695  738318.705670179
-0.40807417035102844 -0.06325822323560715 0.01932559348642826 0.28711163997650146 2.843324661254883 -38.40447998046875  738318.705670295
-0.40917328000068665 -0.06190114840865135 0.023710744455456734 0.28748828172683716 2.840099573135376 -38.366241455078125  738318.7056704104
-0.41035255789756775 -0.0604221448302269 0.02379298210144043 0.2873102128505707 2.8374485969543457 -38.32780838012695  738318.7056705311
-0.41145002841949463 -0.059061504900455475 0.02387007139623165 0.28583747148513794 2.835797071456909 -38.29011154174805  738318.7056706313
-0.41257116198539734 -0.05768534168601036 0.023948727175593376 0.28470027446746826 2.834594488143921 -38.25338363647461  738318.7056707537
-0.4136904776096344 -0.056309398263692856 0.022119415923953056 0.2827061712741852 2.831904172897339 -38.21562194824219  738318.705670895
-0.40948155522346497 -0.0659482404589653 0.02226448431611061 0.40094348788261414 2.855074644088745 -38.550025939941406  738318.7056709793
-0.41060978174209595 -0.06474717706441879 0.022246183827519417 0.3993881642818451 2.851706027984619 -38.51254653930664  738318.7056711001
-0.411763072013855 -0.06353273242712021 0.022227011620998383 0.3978612422943115 2.8488264083862305 -38.47406005859375  738318.7056712154
-0.41294029355049133 -0.06230379641056061 0.02220665104687214 0.3970945179462433 2.8454349040985107 -38.43537521362305  738318.705671327
-0.4141996502876282 -0.06101284921169281 0.02678944356739521 0.3953219950199127 2.8438527584075928 -38.39790725708008  738318.7056714509
-0.41542965173721313 -0.0597492977976799 0.02702132798731327 0.39441442489624023 2.8403525352478027 -38.359619140625  738318.7056715692
-0.4166830778121948 -0.05847170203924179 0.027251776307821274 0.3934936821460724 2.8378801345825195 -38.32260513305664  738318.7056716735
-0.4179610013961792 -0.05718034878373146 0.027481216937303543 0.3920227587223053 2.8343734741210938 -38.28383255004883  738318.7056717871
-0.41920503973960876 -0.05592692270874977 0.023633364588022232 0.39084532856941223 2.8312289714813232 -38.24628829956055  738318.7056719295
-0.41365018486976624 -0.06560319662094116 0.023752661421895027 0.48425570130348206 2.841566324234009 -38.56229782104492  738318.7056720296
-0.41489511728286743 -0.0644904226064682 0.0237564817070961 0.48288917541503906 2.8391294479370117 -38.52473068237305  738318.7056721433
-0.41616663336753845 -0.06336377561092377 0.02376004308462143 0.48248180747032166 2.8370580673217773 -38.485939025878906  738318.705672259
-0.4174652397632599 -0.062223851680755615 0.023761488497257233 0.4815533459186554 2.835244655609131 -38.44753646850586  738318.7056723728
-0.4188452959060669 -0.06101960316300392 0.027413420379161835 0.4804140329360962 2.8337314128875732 -38.41025161743164  738318.7056724909
-0.4202009439468384 -0.05985244736075401 0.02762068621814251 0.47917455434799194 2.8317606449127197 -38.373130798339844  738318.7056725961
-0.4215830862522125 -0.05867363512516022 0.027828561142086983 0.47812822461128235 2.829049587249756 -38.33576583862305  738318.7056727214
-0.4229932725429535 -0.05748239532113075 0.028036896139383316 0.47620365023612976 2.8262360095977783 -38.298500061035156  738318.7056728306
-0.42435353994369507 -0.05635179579257965 0.023906096816062927 0.4738745391368866 2.822718858718872 -38.260677337646484  738318.7056729515
-0.42581039667129517 -0.05513934791088104 0.02387254126369953 0.4730810821056366 2.821155309677124 -38.22376251220703  738318.7056730747
-0.4272923767566681 -0.05391468480229378 0.02383870631456375 0.4719720184803009 2.819671154022217 -38.18566131591797  738318.7056731891
-0.41810673475265503 -0.06577451527118683 0.02394704706966877 0.5457654595375061 2.8085293769836426 -38.52559280395508  738318.7056733022
-0.4194592237472534 -0.06478184461593628 0.02391734905540943 0.5457442402839661 2.809319496154785 -38.524574279785156  738318.7056734171
-0.42090094089508057 -0.06372466683387756 0.02668910287320614 0.5443086624145508 2.8103878498077393 -38.514915466308594  738318.7056735302
-0.42234471440315247 -0.06268402934074402 0.026822704821825027 0.5505227446556091 2.8027546405792236 -38.5167236328125  738318.7056736515
-0.4238320589065552 -0.06162073090672493 0.026958731934428215 0.5363491773605347 2.797273874282837 -38.525787353515625  738318.7056737548
-0.42536255717277527 -0.060534924268722534 0.027090851217508316 0.5450462102890015 2.8002519607543945 -38.503543853759766  738318.7056738753
-0.42686155438423157 -0.05949519947171211 0.023313341662287712 0.527029812335968 2.7638115882873535 -38.5211296081543  738318.7056739866
-0.42847341299057007 -0.058367613703012466 0.02324489876627922 0.5376583933830261 2.7461299896240234 -38.496334075927734  738318.7056741033
-0.43012765049934387 -0.057217925786972046 0.02317081391811371 0.523501455783844 2.7283883094787598 -38.533226013183594  738318.7056742489
-0.42017024755477905 -0.06809621304273605 0.02324202097952366 0.5667641162872314 2.7211496829986572 -38.78141403198242  738318.7056743474
-0.4217030704021454 -0.0671364888548851 0.023147718980908394 0.5754531025886536 2.7093465328216553 -38.822784423828125  738318.7056744567
-0.4233021140098572 -0.06613430380821228 0.024507353082299232 0.54625004529953 2.673398017883301 -38.79263687133789  738318.7056745777
-0.4249190092086792 -0.06513159722089767 0.024437125772237778 0.5361236929893494 2.6489875316619873 -38.81034851074219  738318.7056746823
-0.4265761971473694 -0.06410808861255646 0.024341434240341187 0.5368695259094238 2.6320362091064453 -38.824562072753906  738318.7056748002
-0.42827364802360535 -0.06306375563144684 0.024227803573012352 0.5015654563903809 2.594069480895996 -38.7975959777832  738318.7056749156
-0.429934561252594 -0.06206636503338814 0.020184746012091637 0.5205670595169067 2.5458133220672607 -38.808204650878906  738318.7056750316
-0.43170881271362305 -0.060982633382081985 0.019910035654902458 0.5111760497093201 2.5144007205963135 -38.80961608886719  738318.705675153
-0.4335215389728546 -0.05987904965877533 0.019614597782492638 0.4793819785118103 2.46669602394104 -38.80613327026367  738318.7056752549
-0.4353712201118469 -0.05875621363520622 0.019276335835456848 0.4515518248081207 2.4330036640167236 -38.7995719909668  738318.705675381
-0.43735674023628235 -0.05752856284379959 0.023466698825359344 0.45943397283554077 2.3904550075531006 -38.797359466552734  738318.7056755272
-0.42459702491760254 -0.06924756616353989 0.023508772253990173 0.5433915853500366 2.3209428787231445 -39.07022476196289  738318.7056756202
-0.42630910873413086 -0.06831809133291245 0.023431453853845596 0.5301198363304138 2.255826234817505 -39.05488586425781  738318.7056757284
-0.4282349646091461 -0.0672750398516655 0.02336745150387287 0.5109667778015137 2.201223611831665 -39.04096984863281  738318.7056758447
-0.4300233721733093 -0.06630855798721313 0.023325633257627487 0.49885740876197815 2.1358659267425537 -39.05095291137695  738318.705675961
-0.3781537115573883 -0.09437283873558044 0.03147009015083313 0.36535918712615967 1.4482805728912354 -39.03399658203125  738318.705676076
-0.37866297364234924 -0.0941254124045372 0.03269375115633011 0.35823559761047363 1.35355806350708 -39.0341796875  738318.705676193
-0.3787989318370819 -0.09408017992973328 0.0332036167383194 0.3678399920463562 1.26136314868927 -39.03208541870117  738318.7056763085
-0.3788924217224121 -0.09404698759317398 0.033548735082149506 0.3755417764186859 1.2406635284423828 -39.02667999267578  738318.7056764114
-0.3782106041908264 -0.0944492295384407 0.03227557614445686 0.40127673745155334 1.2179465293884277 -39.00548553466797  738318.7056766646
-0.37826576828956604 -0.09444785118103027 0.032398391515016556 0.3434380888938904 1.259143590927124 -38.99090576171875  738318.7056766876
-0.3795969784259796 -0.09493830054998398 0.03292827680706978 0.31179115176200867 1.4137835502624512 -39.16708755493164  738318.7056767712
-0.37958261370658875 -0.09497321397066116 0.032780472189188004 0.3041544556617737 1.4660959243774414 -39.169525146484375  738318.7056768739
-0.3796522915363312 -0.09496565908193588 0.03253016993403435 0.3129122257232666 1.5821634531021118 -39.17927169799805  738318.705676999
-0.37975892424583435 -0.09492363780736923 0.03255191072821617 0.3201843798160553 1.5996774435043335 -39.2083740234375  738318.705677113
-0.37992408871650696 -0.09485278278589249 0.032662056386470795 0.2897779047489166 1.594559907913208 -39.204383850097656  738318.7056772303
-0.3803666830062866 -0.09465231001377106 0.033031076192855835 0.2860510051250458 1.5511335134506226 -39.181251525878906  738318.7056773461
-0.3807218372821808 -0.09447524696588516 0.0332227423787117 0.3072318732738495 1.5782501697540283 -39.18729019165039  738318.7056774601
-0.380420982837677 -0.09473022818565369 0.030849210917949677 0.32471024990081787 1.6332123279571533 -39.184940338134766  738318.7056775761
-0.38067182898521423 -0.09466323256492615 0.03081452287733555 0.3251708745956421 1.5964586734771729 -39.1636962890625  738318.7056776907
-0.3809323012828827 -0.09440832585096359 0.030820081010460854 0.2863638699054718 1.6545881032943726 -39.188846588134766  738318.7056778115
-0.38218650221824646 -0.09497380256652832 0.030864739790558815 0.15747694671154022 1.6559035778045654 -39.323123931884766  738318.7056779212
-0.3821602761745453 -0.09477284550666809 0.02978208288550377 0.10600095987319946 1.6196669340133667 -39.2844123840332  738318.7056780439
-0.38255783915519714 -0.09470006078481674 0.029697589576244354 0.09377095848321915 1.6914498805999756 -39.29771041870117  738318.7056781618
-0.38292640447616577 -0.09451410174369812 0.029575200751423836 0.10836745798587799 1.6899566650390625 -39.33314895629883  738318.7056782729
-0.3832938075065613 -0.09455804526805878 0.029464228078722954 0.1772427260875702 1.6370749473571777 -39.323123931884766  738318.7056783861
-0.3836517930030823 -0.09377986192703247 0.029300184920430183 0.13472160696983337 1.6702944040298462 -39.294559478759766  738318.7056784962
-0.38389888405799866 -0.09392141550779343 0.028365932404994965 0.13011646270751953 1.616166353225708 -39.28313064575195  738318.7056786232
-0.3844635486602783 -0.09292563050985336 0.028199872002005577 0.11215066909790039 1.6335917711257935 -39.26512908935547  738318.7056787361
-0.38456448912620544 -0.09312070906162262 0.02819967083632946 0.1013471782207489 1.6165084838867188 -39.23186492919922  738318.7056789447
-0.38420167565345764 -0.09381353110074997 0.02829739823937416 0.056972913444042206 1.496972680091858 -39.23420715332031  738318.7056790153
-0.3856256306171417 -0.09397555142641068 0.028239140287041664 -0.014955282211303711 1.6329387426376343 -39.34801483154297  738318.7056790832
-0.3861805200576782 -0.09376506507396698 0.027209477499127388 0.003953611012548208 1.6920976638793945 -39.358184814453125  738318.7056791974
-0.3858180344104767 -0.09317854791879654 0.027124350890517235 -0.05203699693083763 1.6189491748809814 -39.34267807006836  738318.7056793162
-0.38656824827194214 -0.0934649109840393 0.026995396241545677 -0.05309073254466057 1.595579743385315 -39.355812072753906  738318.7056794325
-0.38700592517852783 -0.09204301983118057 0.02675357647240162 -0.06382530927658081 1.7012238502502441 -39.37107467651367  738318.705679534
-0.38662537932395935 -0.09299430251121521 0.027775883674621582 -0.04072846844792366 1.653308629989624 -39.33982849121094  738318.7056796576
-0.38779687881469727 -0.0916438177227974 0.02752169407904148 -0.03958334028720856 1.5999798774719238 -39.321197509765625  738318.7056797877
-0.3877457082271576 -0.09185155481100082 0.027579011395573616 0.012116048485040665 1.5904642343521118 -39.33544158935547  738318.7056798877
-0.3882681131362915 -0.0918363705277443 0.027573758736252785 0.034817397594451904 1.5794018507003784 -39.31989288330078  738318.7056800119
-0.3880177140235901 -0.09181807935237885 0.028188556432724 -0.059293221682310104 1.4569593667984009 -39.29949951171875  738318.7056802522
-0.3894767463207245 -0.0931171178817749 0.02823212929069996 -0.018678298220038414 1.379282832145691 -39.31037139892578  738318.7056802646
-0.38822877407073975 -0.09465426951646805 0.02870039828121662 -0.01264842040836811 1.4160951375961304 -39.41887664794922  738318.7056803571
-0.3890761435031891 -0.09463221579790115 0.02872653864324093 -0.0028728304896503687 1.3411532640457153 -39.4109001159668  738318.7056804737
-0.38882073760032654 -0.09372765570878983 0.028820732608437538 -0.06997895985841751 1.405933141708374 -39.38391876220703  738318.7056805749
-0.38875865936279297 -0.09494035691022873 0.028195088729262352 -0.13130033016204834 1.3823485374450684 -39.37354278564453  738318.7056806907
-0.3891340494155884 -0.09498578310012817 0.028124921023845673 -0.12287195026874542 1.3516267538070679 -39.34818649291992  738318.705680807
-0.3903909921646118 -0.09417438507080078 0.027962209656834602 -0.03937916457653046 1.4565582275390625 -39.341609954833984  738318.7056809309
-0.3897729814052582 -0.09477250277996063 0.028047479689121246 -0.0018701549852266908 1.4002217054367065 -39.35038757324219  738318.7056810379
-0.3896884620189667 -0.09420144557952881 0.027642974629998207 -0.0675755962729454 1.406247615814209 -39.3733024597168  738318.7056811632
-0.3910035192966461 -0.09392282366752625 0.02755577862262726 -0.06367548555135727 1.4966626167297363 -39.40443420410156  738318.7056813608
-0.3905617594718933 -0.09268688410520554 0.02760559879243374 -0.15614096820354462 1.470192551612854 -39.39042663574219  738318.705681407
-0.3909439444541931 -0.09322471171617508 0.02784738503396511 -0.17079441249370575 1.5179837942123413 -39.47347640991211  738318.7056815124
-0.392119824886322 -0.09427763521671295 0.027916137129068375 -0.1428644210100174 1.4654098749160767 -39.500431060791016  738318.7056816282
-0.3912595510482788 -0.09248275309801102 0.027647729963064194 -0.22635649144649506 1.4157114028930664 -39.52983093261719  738318.7056817482
-0.39218568801879883 -0.09322001785039902 0.027692561969161034 -0.20913463830947876 1.3508481979370117 -39.545555114746094  738318.7056818603
-0.3924930989742279 -0.09308304637670517 0.027745425701141357 -0.179117351770401 1.2931772470474243 -39.54401779174805  738318.7056819692
-0.39164501428604126 -0.09362656623125076 0.027945179492235184 -0.17426522076129913 1.114211916923523 -39.543392181396484  738318.7056820951
-0.39164161682128906 -0.09219440072774887 0.027574826031923294 -0.2295597344636917 1.1305058002471924 -39.545833587646484  738318.7056822011
-0.39134836196899414 -0.09287478029727936 0.02766731008887291 -0.27586492896080017 1.1737796068191528 -39.51939010620117  738318.7056823274
-0.39284735918045044 -0.09281080961227417 0.027760161086916924 -0.3585837483406067 1.3410903215408325 -39.54139709472656  738318.7056824403
-0.3919854760169983 -0.09338512271642685 0.02795790135860443 -0.47602397203445435 1.2566676139831543 -39.45429992675781  738318.7056825521
-0.3928878605365753 -0.09231527149677277 0.027193527668714523 -0.5478708744049072 1.1870710849761963 -39.36731719970703  738318.7056826706
-0.39472731947898865 -0.09428199380636215 0.027242407202720642 -0.5809124112129211 1.1022557020187378 -39.30647659301758  738318.7056827719
-0.39532211422920227 -0.09364891797304153 0.027250222861766815 -0.7091602683067322 1.110693335533142 -39.25103759765625  738318.7056828892
-0.39415812492370605 -0.09230901300907135 0.027360670268535614 -0.8593147397041321 1.0083386898040771 -39.18142318725586  738318.705683005
-0.39425140619277954 -0.09327486157417297 0.0274998527020216 -0.9742984771728516 0.8356373310089111 -39.116172790527344  738318.7056831325
-0.3949050307273865 -0.09529849141836166 0.02700420469045639 -1.0048969984054565 0.6583423614501953 -39.00178527832031  738318.7056832376
-0.3945103883743286 -0.09514494240283966 0.02708682417869568 -1.0621923208236694 0.43230804800987244 -38.892982482910156  738318.7056833573
-0.39360326528549194 -0.09440749138593674 0.027215328067541122 -1.14130437374115 0.17411236464977264 -38.79351043701172  738318.7056834778
-0.3927288055419922 -0.09493819624185562 0.027411624789237976 -1.2146648168563843 -0.11512095481157303 -38.68177032470703  738318.7056836314
-0.3924608826637268 -0.09544457495212555 0.027152951806783676 -1.1975784301757812 -0.2418617606163025 -38.617374420166016  738318.7056837096
-0.39215099811553955 -0.09430035948753357 0.027298983186483383 -1.2848814725875854 -0.5116727352142334 -38.42592239379883  738318.7056838277
-0.39289024472236633 -0.09663146734237671 0.02756725624203682 -1.2606767416000366 -0.7726418972015381 -38.216243743896484  738318.7056839295
-0.3921454846858978 -0.10173645615577698 0.027836481109261513 -1.1810269355773926 -1.1156821250915527 -37.95372009277344  738318.705684044
-0.3919791877269745 -0.1009678989648819 0.028082650154829025 -1.2296106815338135 -1.3664538860321045 -37.637306213378906  738318.7056841712
-0.3914928436279297 -0.10330399870872498 0.02533535473048687 -1.241838812828064 -1.6197667121887207 -37.26457595825195  738318.7056842768
-0.3901265263557434 -0.103412926197052 0.02540380135178566 -1.2975618839263916 -1.8232804536819458 -36.865108489990234  738318.7056844019
-0.39005449414253235 -0.10358070582151413 0.02553557977080345 -1.348657250404358 -1.911342740058899 -36.4426155090332  738318.7056845174
-0.3871955871582031 -0.10351616889238358 0.025517262518405914 -1.4147748947143555 -1.9699954986572266 -35.998680114746094  738318.7056846601
-0.3864176273345947 -0.1036609560251236 0.025919882580637932 -1.4727779626846313 -1.7175315618515015 -35.662654876708984  738318.7056847458
-0.38555997610092163 -0.10385569930076599 0.02528100460767746 -1.5727964639663696 -1.5586364269256592 -35.180511474609375  738318.7056848614
-0.38545119762420654 -0.1042579859495163 0.025472210720181465 -1.5884218215942383 -1.355752944946289 -34.669193267822266  738318.7056849784
-0.39029279351234436 -0.10510853677988052 0.026151293888688087 -1.504235029220581 -1.0622789859771729 -34.15640640258789  738318.7056850919
-0.3893890082836151 -0.10644037276506424 0.02638353407382965 -1.4378334283828735 -0.887773334980011 -33.63058853149414  738318.7056852076
-0.3867485821247101 -0.10710864514112473 0.026344088837504387 -1.3448761701583862 -0.8004823923110962 -33.10788345336914  738318.7056853347
-0.3837854862213135 -0.10706417262554169 0.02660420350730419 -1.2511898279190063 -0.7187730669975281 -32.576622009277344  738318.7056854458
-0.3832569122314453 -0.10726264864206314 0.027057358995079994 -1.1452434062957764 -0.5827232599258423 -32.05374526977539  738318.7056855613
-0.38505250215530396 -0.10831771790981293 0.027729498222470284 -1.0021613836288452 -0.32933345437049866 -31.51580238342285  738318.7056856791
-0.3838042914867401 -0.10928323864936829 0.028495661914348602 -0.9571353793144226 -0.012722518295049667 -30.96549415588379  738318.7056857843
-0.3843465745449066 -0.10789750516414642 0.029140209779143333 -0.9688029289245605 0.39586561918258667 -30.403732299804688  738318.7056859119
-0.3797076642513275 -0.10824944078922272 0.030015265569090843 -0.9840329885482788 0.8288798332214355 -29.9054012298584  738318.7056860279
-0.3788268566131592 -0.10716195404529572 0.030761990696191788 -1.1265292167663574 1.1529135704040527 -29.34078025817871  738318.7056861323
-0.3770425021648407 -0.10752377659082413 0.031517356634140015 -1.2431895732879639 1.4031742811203003 -28.784730911254883  738318.7056862487
-0.37639322876930237 -0.10796675831079483 0.03260741010308266 -1.3660683631896973 1.576865792274475 -28.227035522460938  738318.7056863758
-0.37619537115097046 -0.10777144134044647 0.03359326720237732 -1.4742839336395264 1.7320305109024048 -27.668479919433594  738318.7056864816
-0.37612664699554443 -0.10764017701148987 0.03463292866945267 -1.6241036653518677 1.8279149532318115 -27.103912353515625  738318.705686603
-0.37440991401672363 -0.10866104066371918 0.03576699644327164 -1.7086231708526611 1.7665048837661743 -26.496761322021484  738318.7056867165
-0.37302377820014954 -0.10852587968111038 0.038828011602163315 -1.765625 1.7095112800598145 -25.947996139526367  738318.7056868301
-0.3731571137905121 -0.1069740504026413 0.04010331258177757 -1.7670552730560303 1.7042055130004883 -25.403329849243164  738318.705686941
-0.3733541667461395 -0.10964398086071014 0.04160771891474724 -1.624574899673462 1.6797270774841309 -24.86475944519043  738318.7056871075
-0.3740512430667877 -0.1086062639951706 0.043524302542209625 -1.3974257707595825 1.8454570770263672 -24.441242218017578  738318.7056871876
-0.3719073534011841 -0.10918635129928589 0.044992756098508835 -1.2338473796844482 1.8517732620239258 -23.89031410217285  738318.7056872952
-0.3721998333930969 -0.10730604827404022 0.046941157430410385 -1.1016298532485962 1.922684907913208 -23.331924438476562  738318.7056874158
-0.37142032384872437 -0.10672181844711304 0.04855818301439285 -1.003998041152954 1.9592454433441162 -22.774456024169922  738318.7056875201
-0.3710191547870636 -0.10774433612823486 0.05029387027025223 -0.9415333867073059 2.0281026363372803 -22.21026039123535  738318.7056876335
-0.37029439210891724 -0.10864990949630737 0.052047327160835266 -0.9415169954299927 2.066084861755371 -21.663087844848633  738318.7056877487
-0.3696921467781067 -0.10795528441667557 0.05306123569607735 -0.993892252445221 2.1788735389709473 -21.11170196533203  738318.7056878683
-0.37071895599365234 -0.10912830382585526 0.05490032956004143 -1.0204191207885742 2.306013584136963 -20.57134437561035  738318.7056879799
-0.36991217732429504 -0.1091991439461708 0.05672109127044678 -1.1085641384124756 2.3484654426574707 -20.03859519958496  738318.705688102
-0.36723005771636963 -0.109261654317379 0.05857082083821297 -1.2327998876571655 2.4486794471740723 -19.497623443603516  738318.7056883189
-0.36662521958351135 -0.10893270373344421 0.06047111377120018 -1.351962924003601 2.5391931533813477 -18.96851921081543  738318.7056883767
-0.36824727058410645 -0.10754319280385971 0.062225013971328735 -1.2948319911956787 2.7128374576568604 -18.551860809326172  738318.7056884419
-0.36766913533210754 -0.10746273398399353 0.0642034262418747 -1.392815351486206 2.768087148666382 -18.043102264404297  738318.7056885588
-0.3665875196456909 -0.10829294472932816 0.06625649333000183 -1.475494146347046 2.6861114501953125 -17.5429630279541  738318.7056886833
-0.3658992648124695 -0.1076677218079567 0.06825632601976395 -1.5861055850982666 2.5716352462768555 -17.060070037841797  738318.7056887923
-0.3657146394252777 -0.10723598301410675 0.07172821462154388 -1.6574032306671143 2.4152698516845703 -16.58599853515625  738318.7056889064
-0.3666682243347168 -0.10738369077444077 0.07392504811286926 -1.7019768953323364 2.2095725536346436 -16.11843490600586  738318.7056890257
-0.3668169677257538 -0.10833345353603363 0.07619214802980423 -1.7580280303955078 2.0284059047698975 -15.654726028442383  738318.7056891398
-0.3666284680366516 -0.10830740630626678 0.07844259589910507 -1.849672555923462 1.843683123588562 -15.199789047241211  738318.7056892667
-0.36663737893104553 -0.10788333415985107 0.08068467676639557 -1.9275318384170532 1.755997657775879 -14.73997974395752  738318.7056894731
-0.3704589605331421 -0.11829207837581635 0.0859345868229866 -1.711023211479187 1.7608270645141602 -14.294733047485352  738318.7056895077
-0.36984488368034363 -0.11390960216522217 0.08879917860031128 -1.6343845129013062 1.9162111282348633 -13.784282684326172  738318.705689623
-0.3700103759765625 -0.11374259740114212 0.09130790084600449 -1.6011782884597778 2.0501084327697754 -13.330677032470703  738318.7056897153
-0.3695404827594757 -0.11219420284032822 0.09388654679059982 -1.6197739839553833 2.171924591064453 -12.89006519317627  738318.7056898401
-0.36939746141433716 -0.1114901751279831 0.09227939695119858 -1.618773102760315 2.316535472869873 -12.456109046936035  738318.7056899574
-0.36894524097442627 -0.11112327128648758 0.09466411173343658 -1.6445344686508179 2.397209644317627 -12.029743194580078  738318.7056900639
-0.36979278922080994 -0.11096450686454773 0.09702581912279129 -1.6576975584030151 2.500749349594116 -11.59759521484375  738318.7056901874
-0.36971315741539 -0.11090271174907684 0.09945254772901535 -1.6451905965805054 2.523374557495117 -11.160721778869629  738318.7056902956
-0.37008655071258545 -0.11052493751049042 0.10185127705335617 -1.6593225002288818 2.5141689777374268 -10.7406587600708  738318.7056904106
-0.3716846704483032 -0.11034536361694336 0.10300140827894211 -1.71018385887146 2.43735671043396 -10.314837455749512  738318.7056905271
-0.37476715445518494 -0.11159823834896088 0.10525744408369064 -1.721109390258789 2.350290298461914 -9.899911880493164  738318.7056906824
-0.3728722929954529 -0.10641089081764221 0.10820518434047699 -1.9668973684310913 2.164425849914551 -9.63072681427002  738318.7056907611
-0.3728051781654358 -0.10522104054689407 0.11063748598098755 -2.0611016750335693 1.9332877397537231 -9.22632884979248  738318.7056908724
-0.3728694021701813 -0.10435223579406738 0.11184291541576385 -2.1147475242614746 1.6992478370666504 -8.817540168762207  738318.7056909942
-0.37281370162963867 -0.10340903699398041 0.1143004521727562 -2.1385316848754883 1.4439435005187988 -8.422466278076172  738318.7056911218
-0.37269437313079834 -0.10293897986412048 0.1168566346168518 -2.128695249557495 1.1897121667861938 -8.03187370300293  738318.7056912176
-0.3732891380786896 -0.10218643397092819 0.11939630657434464 -2.111947774887085 0.9783086180686951 -7.65359354019165  738318.7056913361
-0.3721531927585602 -0.10220745950937271 0.12320258468389511 -2.042820453643799 0.7992947101593018 -7.2846455574035645  738318.7056914527
-0.3758827745914459 -0.10404584556818008 0.1259688138961792 -1.8739404678344727 0.770643949508667 -6.924175262451172  738318.7056915667
-0.37580621242523193 -0.10327191650867462 0.1287631243467331 -1.7494195699691772 0.752447247505188 -6.569417476654053  738318.7056917874
-0.376499205827713 -0.10269859433174133 0.13159240782260895 -1.592551589012146 0.7618496417999268 -6.207759380340576  738318.705691822
-0.3741663694381714 -0.09544815868139267 0.1350361406803131 -1.4382580518722534 0.6952587366104126 -5.802236557006836  738318.7056919258
-0.3745419681072235 -0.09499222040176392 0.1383957862854004 -1.2920867204666138 0.7363116145133972 -5.464101791381836  738318.7056920464
-0.37502583861351013 -0.09351713955402374 0.1414189487695694 -1.1640872955322266 0.7704833745956421 -5.134110927581787  738318.7056921454
-0.3753357529640198 -0.09229132533073425 0.14483700692653656 -1.0399048328399658 0.8083450794219971 -4.780325412750244  738318.7056922527
-0.37570175528526306 -0.09097945690155029 0.1479724794626236 -0.9459264874458313 0.7446268200874329 -4.476068496704102  738318.7056923865
-0.37599456310272217 -0.08934067189693451 0.15067915618419647 -0.8860058784484863 0.7449809908866882 -4.157545566558838  738318.7056924957
-0.3762185871601105 -0.08846301585435867 0.15393181145191193 -0.8130180835723877 0.6308876276016235 -3.8656606674194336  738318.705692616
-0.37679794430732727 -0.08782089501619339 0.15725098550319672 -0.7386766672134399 0.5282003283500671 -3.57055926322937  738318.7056927424
-0.3752163350582123 -0.08140544593334198 0.16156160831451416 -0.6978345513343811 0.5220764875411987 -3.1993250846862793  738318.7056928322
-0.3754774034023285 -0.07991554588079453 0.16500835120677948 -0.6454861760139465 0.3996855318546295 -2.920598268508911  738318.7056929556
-0.37585046887397766 -0.07846861332654953 0.1700478047132492 -0.5650670528411865 0.3265099823474884 -2.6565587520599365  738318.7056930596
-0.376091867685318 -0.07760759443044662 0.17366644740104675 -0.4653109312057495 0.2515275776386261 -2.399479627609253  738318.7056931786
-0.37660643458366394 -0.07596084475517273 0.17765861749649048 -0.35591426491737366 0.19581837952136993 -2.1322922706604004  738318.7056933031
-0.3770207464694977 -0.0749601498246193 0.18138903379440308 -0.2307455986738205 0.19466859102249146 -1.9022581577301025  738318.7056934183
-0.3773033916950226 -0.07383443415164948 0.18270336091518402 -0.09398085623979568 0.1743970662355423 -1.6691608428955078  738318.7056935359
-0.3773055076599121 -0.07261376827955246 0.186369851231575 0.06016714498400688 0.19114762544631958 -1.458398699760437  738318.705693649
-0.3782053589820862 -0.07224700599908829 0.19010908901691437 0.23353007435798645 0.23916324973106384 -1.2419050931930542  738318.7056937658
-0.37820151448249817 -0.07160435616970062 0.19390329718589783 0.37425628304481506 0.2565716505050659 -1.0429737567901611  738318.7056938809
-0.3799179792404175 -0.0724918320775032 0.1977681666612625 0.5481429100036621 0.33142322301864624 -0.841724157333374  738318.7056940701
-0.3800196051597595 -0.07070152461528778 0.20166975259780884 0.63334721326828 0.3359801471233368 -0.6428539752960205  738318.7056941164
-0.37753820419311523 -0.06457317620515823 0.20598755776882172 0.8063319325447083 0.5961400270462036 -0.3769156038761139  738318.7056942318
-0.37785783410072327 -0.06309697031974792 0.2098919004201889 0.8649848699569702 0.5967358350753784 -0.19681528210639954  738318.7056943453
-0.37848904728889465 -0.06201786920428276 0.21383118629455566 0.9285631775856018 0.6206364631652832 -0.012914172373712063  738318.7056944577
-0.3794170022010803 -0.06288950890302658 0.21790868043899536 1.0210707187652588 0.6782165169715881 0.16432558000087738  738318.705694567
-0.37876442074775696 -0.05921030789613724 0.22188825905323029 1.0103671550750732 0.6142682433128357 0.343292772769928  738318.7056946811
-0.3786984980106354 -0.05849909782409668 0.22594577074050903 1.0604667663574219 0.6245905160903931 0.509195864200592  738318.7056948076
-0.3793273866176605 -0.056929945945739746 0.2299918383359909 1.0796003341674805 0.6288268566131592 0.6786143183708191  738318.7056949268
-0.3799282908439636 -0.05626824498176575 0.23410247266292572 1.1332008838653564 0.534821629524231 0.8365947008132935  738318.7056950391
-0.3802868723869324 -0.05545404925942421 0.23896825313568115 1.176781177520752 0.5465481877326965 0.9912797212600708  738318.7056952026
-0.376763254404068 -0.047363508492708206 0.2435726374387741 1.3161481618881226 0.7206491827964783 1.2306594848632812  738318.7056952704
-0.37715551257133484 -0.04632033780217171 0.2477739155292511 1.3534687757492065 0.6203938126564026 1.3779263496398926  738318.7056953843
-0.3776296377182007 -0.04508450999855995 0.25197213888168335 1.4139573574066162 0.6873416304588318 1.5209412574768066  738318.7056955001
-0.3782517910003662 -0.04411042481660843 0.2536848187446594 1.4486591815948486 0.6816413998603821 1.6607685089111328  738318.7056956239
-0.3775959312915802 -0.043038979172706604 0.2577638030052185 1.5080370903015137 0.5736773610115051 1.8028874397277832  738318.7056957271
-0.3781670033931732 -0.04282970726490021 0.2618350088596344 1.5869773626327515 0.6580451726913452 1.9316890239715576  738318.7056958462
-0.37888815999031067 -0.041367217898368835 0.26587456464767456 1.630204677581787 0.7030239105224609 2.077251672744751  738318.705695962
-0.37920084595680237 -0.03990350663661957 0.2699286937713623 1.6994333267211914 0.6574875712394714 2.208881378173828  738318.7056960806
-0.37996721267700195 -0.03940555825829506 0.27315106987953186 1.8033822774887085 0.7662382125854492 2.349621057510376  738318.7056961847
-0.38039031624794006 -0.03873094916343689 0.27715373039245605 1.8710529804229736 0.7970476150512695 2.489071846008301  738318.7056964198
-0.3806905448436737 -0.03702098876237869 0.2811489701271057 1.9398683309555054 0.7441924810409546 2.6173362731933594  738318.7056964784
-0.3745793402194977 -0.02804567664861679 0.28590884804725647 1.979638695716858 0.9351476430892944 2.8368470668792725  738318.7056965473
-0.3751544952392578 -0.027257246896624565 0.28832104802131653 2.0352044105529785 0.9861465096473694 2.966212749481201  738318.7056966576
-0.3752988874912262 -0.02649838477373123 0.2922658622264862 2.09477162361145 0.9225895404815674 3.0852725505828857  738318.7056967738
-0.3756304979324341 -0.025474118068814278 0.29616579413414 2.137317419052124 0.9939451813697815 3.1922390460968018  738318.7056968822
-0.376393586397171 -0.024103231728076935 0.30001771450042725 2.195913314819336 1.0554108619689941 3.3013248443603516  738318.7056970056
-0.37685778737068176 -0.023030702024698257 0.3038715124130249 2.285115957260132 1.0240957736968994 3.403588056564331  738318.7056971146
-0.3773319125175476 -0.02242974564433098 0.30766940116882324 2.3751120567321777 1.098163366317749 3.5040910243988037  738318.7056972291
-0.3779522776603699 -0.021847516298294067 0.3115411102771759 2.454693078994751 1.1377094984054565 3.6002206802368164  738318.7056973451
-0.37810659408569336 -0.021037252619862556 0.31542009115219116 2.565647602081299 1.0895774364471436 3.6950178146362305  738318.7056975067
