% x y z r p yw  738339.4296643927
-0.15862125158309937 0.15244273841381073 0.5055648684501648 1.0563228130340576 -0.2753879129886627 0.04631334915757179  738339.430019141
-0.1576032191514969 0.15129411220550537 0.5055751800537109 1.0324405431747437 -0.2811296582221985 0.05234429985284805  738339.4300192702
-0.15667285025119781 0.15023162961006165 0.5055556893348694 1.0181196928024292 -0.274836003780365 0.05532892420887947  738339.4300193826
-0.15573778748512268 0.14915192127227783 0.5055184364318848 1.0016436576843262 -0.24545316398143768 0.05169854313135147  738339.4300194999
-0.15479832887649536 0.14805524051189423 0.5054629445075989 0.9783154726028442 -0.25104907155036926 0.051874514669179916  738339.430019609
-0.15385477244853973 0.14694221317768097 0.5053719878196716 0.9794928431510925 -0.15323418378829956 0.053907543420791626  738339.4300197241
-0.15290778875350952 0.14581310749053955 0.5052408576011658 0.9443432688713074 -0.11139201372861862 0.04514952003955841  738339.4300199777
-0.15195856988430023 0.14466790854930878 0.505086362361908 0.9174000024795532 -0.12592387199401855 0.05485798791050911  738339.4300200013
-0.1473676711320877 0.1432606726884842 0.506388783454895 0.9410368204116821 0.012888128869235516 0.0662727802991867  738339.4300200683
-0.14636780321598053 0.14206786453723907 0.5062366127967834 0.9031320810317993 0.04227394238114357 0.056513477116823196  738339.4300201861
-0.14536838233470917 0.14085938036441803 0.5060761570930481 0.8520601391792297 0.02700461819767952 0.06686276197433472  738339.430020305
-0.14436952769756317 0.13963600993156433 0.5059064626693726 0.8122422695159912 0.10870099067687988 0.06498897075653076  738339.4300204233
-0.1433718055486679 0.1383984088897705 0.5057355165481567 0.741607129573822 0.09574686735868454 0.05178704112768173  738339.4300205351
-0.14237582683563232 0.1371474266052246 0.5055705308914185 0.658905565738678 0.08593950420618057 0.0654238760471344  738339.4300206623
-0.1413813829421997 0.13588446378707886 0.505404531955719 0.6011379957199097 0.10212501883506775 0.061257943511009216  738339.430020766
-0.14038853347301483 0.13461074233055115 0.505235493183136 0.5657336115837097 0.13658559322357178 0.05008786916732788  738339.4300208815
-0.13939771056175232 0.13332705199718475 0.5050634145736694 0.5047723054885864 0.14557284116744995 0.056950367987155914  738339.4300209968
-0.13840925693511963 0.1320343315601349 0.5048767328262329 0.4588973820209503 0.14417624473571777 0.059627581387758255  738339.4300212304
-0.13742323219776154 0.13073347508907318 0.5046736598014832 0.43598949909210205 0.12663251161575317 0.06277825683355331  738339.4300212942
-0.13257092237472534 0.12948548793792725 0.5060099363327026 0.3968832194805145 0.13536378741264343 0.07238838821649551  738339.4300213474
-0.13153664767742157 0.12816163897514343 0.5058171153068542 0.3553723692893982 0.15412946045398712 0.07558073848485947  738339.4300214559
-0.1305047869682312 0.12683145701885223 0.5056048035621643 0.3178810179233551 0.21960312128067017 0.09071775525808334  738339.4300215804
-0.12947608530521393 0.1254955232143402 0.505387544631958 0.2447444200515747 0.23305876553058624 0.09268654137849808  738339.4300216911
-0.12845130264759064 0.1241547241806984 0.5051818490028381 0.17567144334316254 0.2683340907096863 0.09911920130252838  738339.4300218095
-0.12743088603019714 0.12281027436256409 0.5049929618835449 0.09632899612188339 0.32316702604293823 0.10486727952957153  738339.4300219305
-0.12641562521457672 0.12146347016096115 0.5048186182975769 0.021559705957770348 0.3709243834018707 0.10754670202732086  738339.4300220343
-0.12540635466575623 0.12011565268039703 0.5046524405479431 -0.018496772274374962 0.47151750326156616 0.10832121968269348  738339.4300221498
-0.12440429627895355 0.11876779049634933 0.5044851303100586 -0.09881511330604553 0.48297181725502014 0.12064383924007416  738339.4300223232
-0.11978287994861603 0.11747267097234726 0.5056321620941162 -0.10650097578763962 0.5959529280662537 0.12322849035263062  738339.4300223835
-0.11874505877494812 0.11610811948776245 0.505463719367981 -0.16546550393104553 0.6528143882751465 0.1390238106250763  738339.4300225136
-0.11771770566701889 0.11474580317735672 0.5052763223648071 -0.22241659462451935 0.692738950252533 0.1526292860507965  738339.4300226184
-0.11670166254043579 0.11338669806718826 0.5050711035728455 -0.27629318833351135 0.7202112674713135 0.15189538896083832  738339.4300227576
-0.11569762229919434 0.11203178018331528 0.504858136177063 -0.31246718764305115 0.7193690538406372 0.1763317734003067  738339.4300228494
-0.11470594257116318 0.11068187654018402 0.5046467185020447 -0.35873934626579285 0.7637577652931213 0.18695227801799774  738339.4300229647
-0.11372701078653336 0.1093376874923706 0.5044378042221069 -0.4098469614982605 0.7251194715499878 0.20577998459339142  738339.4300230802
-0.11276085674762726 0.10800004005432129 0.5042292475700378 -0.46682751178741455 0.7640754580497742 0.20993098616600037  738339.4300231957
-0.11180725693702698 0.10666970908641815 0.504004180431366 -0.5075507164001465 0.757809042930603 0.2313249707221985  738339.4300233137
-0.11086633801460266 0.1053474023938179 0.503750205039978 -0.5478424429893494 0.8298014402389526 0.24585619568824768  738339.4300234183
-0.10628653317689896 0.10474211722612381 0.5048953890800476 -0.5871289372444153 0.8641408681869507 0.26265624165534973  738339.4300235459
-0.10531777143478394 0.10344438999891281 0.5046348571777344 -0.6236413717269897 0.8815059065818787 0.2823677659034729  738339.4300236591
-0.10436374694108963 0.10215676575899124 0.5043575763702393 -0.6710814833641052 0.93022221326828 0.2920645773410797  738339.4300237733
-0.103425033390522 0.1008799597620964 0.5040647983551025 -0.7185420989990234 0.9247182607650757 0.30931785702705383  738339.4300238971
-0.1025022342801094 0.0996149331331253 0.5037700533866882 -0.7440526485443115 0.9756839275360107 0.3241276741027832  738339.4300240122
-0.10159601271152496 0.0983625128865242 0.5034887194633484 -0.7814425826072693 1.0161912441253662 0.3360556662082672  738339.4300241276
-0.10070706903934479 0.0971231609582901 0.5032152533531189 -0.8231478929519653 1.0451433658599854 0.35199227929115295  738339.4300242431
-0.09983565658330917 0.09589727967977524 0.5029308199882507 -0.853274941444397 1.0782654285430908 0.37177255749702454  738339.4300243469
-0.09898247569799423 0.09468559920787811 0.5026441812515259 -0.8791213631629944 1.110695719718933 0.3824593424797058  738339.4300244624
-0.09806641191244125 0.09337026625871658 0.5023626089096069 -0.9119149446487427 1.1382874250411987 0.39904212951660156  738339.4300246128
-0.09377778321504593 0.09283819794654846 0.5040310621261597 -0.8793225288391113 1.2070378065109253 0.41869792342185974  738339.4300246941
-0.09293768554925919 0.09166697412729263 0.5038671493530273 -0.90695720911026 1.2519829273223877 0.4262930452823639  738339.4300248122
-0.09211893379688263 0.0905110165476799 0.5037109851837158 -0.9175591468811035 1.261114478111267 0.4521833062171936  738339.430024938
-0.09132173657417297 0.08937044441699982 0.5035507678985596 -0.941046953201294 1.3815858364105225 0.4768356382846832  738339.4300250534
-0.09054736793041229 0.08824564516544342 0.503393828868866 -0.9601488709449768 1.3883235454559326 0.4806382954120636  738339.4300251688
-0.0897974818944931 0.0871373638510704 0.5032629370689392 -0.9642078280448914 1.3837424516677856 0.5020260214805603  738339.4300252843
-0.08907221257686615 0.08604585379362106 0.5031622648239136 -0.9911255836486816 1.503029227256775 0.5140313506126404  738339.4300253997
-0.08907221257686615 0.08604585379362106 0.5031622648239136 -0.9911255836486816 1.503029227256775 0.5140313506126404  738339.4300255137
-0.08837220072746277 0.0849711000919342 0.5030750036239624 -1.0138400793075562 1.4809916019439697 0.5290161371231079  738339.4300257702
-0.08769729733467102 0.08391287177801132 0.5029646158218384 -1.0382732152938843 1.5192564725875854 0.5516907572746277  738339.4300258566
-0.0870475322008133 0.08287148922681808 0.5028278827667236 -1.0826328992843628 1.6185611486434937 0.5642387866973877  738339.4300258826
-0.08261093497276306 0.08290322124958038 0.504625141620636 -1.0602834224700928 1.5435665845870972 0.5820848345756531  738339.4300259735
-0.08194470405578613 0.08190414309501648 0.5045580267906189 -1.0479094982147217 1.5691320896148682 0.6047898530960083  738339.4300260834
-0.08130578696727753 0.08092313259840012 0.5045076608657837 -1.0668836832046509 1.6552183628082275 0.6190969944000244  738339.430026211
-0.08069531619548798 0.07996033877134323 0.5044790506362915 -1.0753462314605713 1.5715351104736328 0.6409396529197693  738339.430026319
-0.08011297136545181 0.07901578396558762 0.5044618248939514 -1.0800584554672241 1.614812970161438 0.6517542004585266  738339.4300264344
-0.07955798506736755 0.07808929681777954 0.5044399499893188 -1.099613070487976 1.6297831535339355 0.6718584299087524  738339.4300265498
-0.07903118431568146 0.07718125730752945 0.5044241547584534 -1.0934829711914062 1.5312566757202148 0.6804932951927185  738339.4300266652
-0.07853181660175323 0.07629179209470749 0.5044143199920654 -1.0808311700820923 1.5392560958862305 0.6862877607345581  738339.4300267807
-0.07805892080068588 0.07542060315608978 0.5044028759002686 -1.1046326160430908 1.493111252784729 0.6989777684211731  738339.4300269071
-0.07442453503608704 0.07597148418426514 0.5061342120170593 -1.0967110395431519 1.4897832870483398 0.7141900658607483  738339.4300270119
-0.07396327704191208 0.07515861839056015 0.506151020526886 -1.0810359716415405 1.5087642669677734 0.7284538745880127  738339.4300271354
-0.07352770119905472 0.07436391711235046 0.5061590671539307 -1.0965052843093872 1.462772250175476 0.7241933941841125  738339.4300272383
-0.07311767339706421 0.07358743995428085 0.5061618089675903 -1.0829886198043823 1.473024606704712 0.7354999780654907  738339.4300273681
-0.07273288816213608 0.07282920926809311 0.5061595439910889 -1.0763723850250244 1.4771533012390137 0.7335818409919739  738339.4300274835
-0.07237328588962555 0.07208892703056335 0.5061452388763428 -1.075877070426941 1.422094702720642 0.7250874042510986  738339.4300275878
-0.072038434445858 0.07136653363704681 0.506118655204773 -1.0608868598937988 1.4085949659347534 0.7391970753669739  738339.4300277028
-0.0717277005314827 0.07066185772418976 0.5060773491859436 -1.0372529029846191 1.39252769947052 0.7362044453620911  738339.4300278185
-0.07144071906805038 0.06997451186180115 0.5060174465179443 -1.0028742551803589 1.4022952318191528 0.7423432469367981  738339.4300279337
-0.07117777317762375 0.06930425018072128 0.5059527158737183 -0.9435742497444153 1.3966344594955444 0.746265172958374  738339.4300281089
-0.06787183880805969 0.07010842114686966 0.5074247121810913 -0.8916071653366089 1.466128945350647 0.7617910504341125  738339.4300281726
-0.06762930005788803 0.06949691474437714 0.5073928236961365 -0.843035876750946 1.47518789768219 0.770403265953064  738339.4300282834
-0.0674116238951683 0.06889963895082474 0.507340669631958 -0.7997095584869385 1.442677617073059 0.773307204246521  738339.4300283998
-0.06721843034029007 0.06831572949886322 0.5072610974311829 -0.7670480608940125 1.4562619924545288 0.77890545129776  738339.4300285267
-0.06704936921596527 0.06774446368217468 0.5071476101875305 -0.751339852809906 1.4397356510162354 0.783309280872345  738339.4300286422
-0.0669044777750969 0.06718545407056808 0.5070021152496338 -0.7357462048530579 1.4380669593811035 0.7808709144592285  738339.4300287345
-0.06678382307291031 0.06663855910301208 0.5068338513374329 -0.7234092950820923 1.420952320098877 0.7787752747535706  738339.4300288615
-0.06668730825185776 0.06610358506441116 0.5066452026367188 -0.7030100226402283 1.373293399810791 0.7829854488372803  738339.4300289769
-0.06656577438116074 0.0650685727596283 0.5062362551689148 -0.6515785455703735 1.3346999883651733 0.7885721325874329  738339.4300290924
-0.06656577438116074 0.0650685727596283 0.5062362551689148 -0.6515785455703735 1.3346999883651733 0.7885721325874329  738339.4300292077
-0.06653910130262375 0.06407809257507324 0.5058594942092896 -0.5743864178657532 1.3424969911575317 0.7861998677253723  738339.4300293889
-0.06277385354042053 0.06561904400587082 0.5074123740196228 -0.5873652100563049 1.3566581010818481 0.7848165035247803  738339.4300294353
-0.06272107362747192 0.06472993642091751 0.5070863962173462 -0.5335392951965332 1.2452179193496704 0.7883829474449158  738339.4300295467
-0.06272107362747192 0.06472993642091751 0.5070863962173462 -0.5335392951965332 1.2452179193496704 0.7883829474449158  738339.4300296749
-0.06275437772274017 0.06387700885534286 0.5067270994186401 -0.4849284589290619 1.1522148847579956 0.7973912954330444  738339.4300297884
-0.06275437772274017 0.06387700885534286 0.5067270994186401 -0.4849284589290619 1.1522148847579956 0.7973912954330444  738339.4300299153
-0.06286927312612534 0.06305664777755737 0.5063103437423706 -0.445002019405365 1.1217548847198486 0.7974206209182739  738339.4300300077
-0.06295663863420486 0.06265787035226822 0.5061020255088806 -0.41503623127937317 1.0976011753082275 0.8008943200111389  738339.4300301346
-0.06306302547454834 0.06226615980267525 0.5058896541595459 -0.37775322794914246 1.1136596202850342 0.804931104183197  738339.4300302501
-0.06318840384483337 0.06188095733523369 0.5056752562522888 -0.34263676404953003 1.0695375204086304 0.8082220554351807  738339.4300303846
-0.05956267565488815 0.06277576833963394 0.5068623423576355 -0.3126172423362732 1.123820424079895 0.8186892867088318  738339.4300304801
-0.05967220291495323 0.06243114918470383 0.5066947937011719 -0.2863169014453888 1.0968635082244873 0.8338479399681091  738339.4300305875
-0.05980079248547554 0.062091369181871414 0.5065261125564575 -0.2541050314903259 1.0875046253204346 0.8260886669158936  738339.4300307297
-0.05980079248547554 0.062091369181871414 0.5065261125564575 -0.2541050314903259 1.0875046253204346 0.8260886669158936  738339.4300308566
-0.05994797870516777 0.061755914241075516 0.5063486099243164 -0.23199217021465302 1.0476921796798706 0.8223204016685486  738339.4300309494
-0.06011335179209709 0.06142432987689972 0.5061626434326172 -0.21875309944152832 1.0286186933517456 0.830819308757782  738339.4300310595
-0.06029629334807396 0.06109629198908806 0.5059619545936584 -0.170413076877594 1.0138318538665771 0.8288142085075378  738339.4300311748
-0.060496553778648376 0.060771308839321136 0.505748987197876 -0.13203468918800354 0.9902341365814209 0.8335463404655457  738339.4300312903
-0.06071406230330467 0.060448672622442245 0.5055391192436218 -0.10475684702396393 1.0051299333572388 0.8286380767822266  738339.4300315314
-0.06094900518655777 0.06012784317135811 0.5053476095199585 -0.07954676449298859 0.8992840051651001 0.8300846815109253  738339.430031589
-0.05687761306762695 0.0605648048222065 0.5063518285751343 -0.05907256156206131 0.9087267518043518 0.8424204587936401  738339.4300316348
-0.05707760155200958 0.060262370854616165 0.5062103867530823 -0.04130987077951431 0.9075520634651184 0.8417445421218872  738339.4300317576
-0.057293348014354706 0.05996057391166687 0.5060814023017883 -0.023010119795799255 0.7880788445472717 0.8502249717712402  738339.4300318741
-0.05752352625131607 0.05965910851955414 0.5059466361999512 -0.013444376178085804 0.8078305125236511 0.855975866317749  738339.4300319895
-0.057767078280448914 0.05935775116086006 0.505791425704956 -0.010751240886747837 0.8011450171470642 0.8544823527336121  738339.4300320934
-0.05802417919039726 0.059056397527456284 0.5056197643280029 -0.0011859727092087269 0.6777616143226624 0.8550748825073242  738339.4300322204
-0.058293599635362625 0.05875496193766594 0.5054178237915039 0.026354361325502396 0.6976574659347534 0.8518415689468384  738339.4300323358
-0.05857449024915695 0.058453161269426346 0.5051918625831604 0.0485321544110775 0.7300195693969727 0.8451253771781921  738339.4300324396
-0.05886774882674217 0.058150529861450195 0.5049781203269958 0.06766805797815323 0.6463603973388672 0.8607982397079468  738339.4300325551
-0.05917293205857277 0.05784669890999794 0.504780113697052 0.09864172339439392 0.704253077507019 0.859443187713623  738339.4300326752
-0.05432900786399841 0.05825873836874962 0.5056954622268677 0.09028223901987076 0.6503341197967529 0.8623933792114258  738339.4300327871
-0.054552629590034485 0.0579720214009285 0.5055493116378784 0.10984736680984497 0.6095414757728577 0.8685572147369385  738339.4300329143
-0.05478726699948311 0.057683371007442474 0.5054280161857605 0.12209176272153854 0.6794206500053406 0.8594262599945068  738339.4300330181
-0.055033084005117416 0.05739253759384155 0.5053198933601379 0.11935501545667648 0.6252772212028503 0.8650951981544495  738339.4300331336
-0.0552898533642292 0.05709950625896454 0.5051949620246887 0.1362677961587906 0.5831702947616577 0.8733121156692505  738339.430033249
-0.05555664002895355 0.05680420994758606 0.5050399303436279 0.12561136484146118 0.6458168625831604 0.8602634072303772  738339.4300333644
-0.05583372712135315 0.05650654807686806 0.5048695206642151 0.10975255817174911 0.5962527990341187 0.867888331413269  738339.4300334915
-0.05612127482891083 0.05620673671364784 0.5046854615211487 0.11005596071481705 0.6074531674385071 0.8723191618919373  738339.4300336068
-0.056418903172016144 0.055904924869537354 0.5044832229614258 0.10701687633991241 0.6546027660369873 0.8695945739746094  738339.4300338625
-0.05672730877995491 0.0556010901927948 0.5042814612388611 0.11251627653837204 0.6221333742141724 0.8782933354377747  738339.4300339208
-0.0570468045771122 0.05529516935348511 0.5040975213050842 0.11870183795690536 0.6672000288963318 0.8742908239364624  738339.4300339556
-0.05172637850046158 0.05513253062963486 0.5047622323036194 0.10617198795080185 0.5952290296554565 0.8702774047851562  738339.4300340594
-0.0519554540514946 0.054826751351356506 0.5046244859695435 0.1366008073091507 0.571031928062439 0.8771076798439026  738339.430034198
-0.05219433829188347 0.05451877787709236 0.5044724941253662 0.14645296335220337 0.583453893661499 0.870896577835083  738339.4300343018
-0.052442796528339386 0.05420830845832825 0.50429368019104 0.14592081308364868 0.5320712327957153 0.8678194880485535  738339.4300344173
-0.05270051583647728 0.053895264863967896 0.5040866136550903 0.17409516870975494 0.5792266130447388 0.8817870616912842  738339.4300345327
-0.05296754464507103 0.05357939004898071 0.503864586353302 0.16786091029644012 0.586505115032196 0.8779657483100891  738339.4300346482
-0.05324459820985794 0.05326040834188461 0.5036514401435852 0.15296371281147003 0.5355786681175232 0.8871177434921265  738339.4300347635
-0.05353137105703354 0.05293848365545273 0.5034559965133667 0.18730135262012482 0.5904363393783569 0.8994693756103516  738339.4300348789
-0.05382794886827469 0.05261341854929924 0.5032806396484375 0.17894713580608368 0.6268975138664246 0.8899130821228027  738339.4300349829
-0.05413511395454407 0.05228499695658684 0.5031243562698364 0.16095687448978424 0.6198365688323975 0.9038477540016174  738339.4300351646
-0.04828440770506859 0.05184497684240341 0.5037708282470703 0.16656173765659332 0.601432740688324 0.90958571434021  738339.4300352107
-0.04848935827612877 0.051504842936992645 0.503627359867096 0.1227780357003212 0.5566925406455994 0.9027789235115051  738339.4300353377
-0.04870408773422241 0.05116209760308266 0.5034738779067993 0.10447501391172409 0.5858181715011597 0.9066029787063599  738339.430035453
-0.04892838001251221 0.05081728473305702 0.503302276134491 0.0936896800994873 0.5626295208930969 0.9052167534828186  738339.4300355685
-0.049162354320287704 0.05047064274549484 0.5031178593635559 0.06800220161676407 0.5756473541259766 0.8996879458427429  738339.4300356839
-0.0494060143828392 0.0501224659383297 0.5029301643371582 0.0569891482591629 0.575998067855835 0.9013948440551758  738339.4300357994
-0.04965953901410103 0.04977306351065636 0.502744734287262 0.025356799364089966 0.5553587675094604 0.900767982006073  738339.4300359264
-0.04992281273007393 0.04942280054092407 0.5025669932365417 0.018392058089375496 0.6188722848892212 0.8912183046340942  738339.4300360302
-0.05019610375165939 0.049072008579969406 0.5023859143257141 0.007561498321592808 0.5862046480178833 0.889510452747345  738339.4300362045
-0.044774726033210754 0.048576001077890396 0.5028942823410034 0.001373891718685627 0.61492919921875 0.8950097560882568  738339.4300362632
-0.04495888948440552 0.04822013899683952 0.5027160048484802 -0.0018882228760048747 0.6617497205734253 0.8941390514373779  738339.4300363787
-0.045154113322496414 0.04786410927772522 0.5025483965873718 -0.0019192949403077364 0.5981553792953491 0.8990805745124817  738339.4300364942
-0.04536018520593643 0.04750794172286987 0.5023872256278992 -0.029824519529938698 0.6670325398445129 0.8932084441184998  738339.4300366095
-0.045577168464660645 0.04715188220143318 0.5022321343421936 -0.06003972887992859 0.6583105325698853 0.9005684852600098  738339.430036725
-0.045805513858795166 0.046796415001153946 0.5020774006843567 -0.0853034183382988 0.6445192694664001 0.8995316028594971  738339.4300368404
-0.04604491963982582 0.046442002058029175 0.5019127726554871 -0.10860808193683624 0.7301119565963745 0.9022703170776367  738339.4300369559
-0.04629600793123245 0.0460890457034111 0.5017405152320862 -0.12733732163906097 0.6617121696472168 0.9129446744918823  738339.4300370712
-0.04655901715159416 0.045737914741039276 0.5015658736228943 -0.11944366246461868 0.7258940935134888 0.9067307114601135  738339.430037188
-0.041545722633600235 0.04559565708041191 0.502080500125885 -0.1628936231136322 0.7419949173927307 0.913169264793396  738339.4300373081
-0.041736189275979996 0.04526421055197716 0.5019421577453613 -0.17021998763084412 0.7399986386299133 0.9195886850357056  738339.4300374197
-0.04193945974111557 0.044935427606105804 0.5018094778060913 -0.20611582696437836 0.8116143345832825 0.919285774230957  738339.4300375351
-0.042156118899583817 0.044609665870666504 0.5016803741455078 -0.21538211405277252 0.7733933329582214 0.9206293821334839  738339.4300376505
-0.042386360466480255 0.04428728297352791 0.5015482902526855 -0.2277989387512207 0.818691611289978 0.9157145619392395  738339.430037766
-0.04263008013367653 0.04396842420101166 0.5014017224311829 -0.2434019148349762 0.874283492565155 0.919680118560791  738339.4300378814
-0.042888350784778595 0.04365336149930954 0.5012551546096802 -0.2397211343050003 0.8154745101928711 0.9199683666229248  738339.4300379968
-0.04316120967268944 0.0433422215282917 0.5011134743690491 -0.24727842211723328 0.8837461471557617 0.9129966497421265  738339.4300381122
-0.04344859719276428 0.04303500056266785 0.5009665489196777 -0.23838356137275696 0.9209926724433899 0.9236390590667725  738339.4300382162
-0.04375145211815834 0.042731672525405884 0.5008167028427124 -0.2274937629699707 0.8973952531814575 0.921502947807312  738339.4300383432
-0.04406987503170967 0.04243206977844238 0.5006627440452576 -0.23479507863521576 0.9649252891540527 0.9195190668106079  738339.4300384755
-0.03845701366662979 0.041860852390527725 0.5010061860084534 -0.24489468336105347 0.9151639938354492 0.941493809223175  738339.4300385766
-0.03870111331343651 0.041563306003808975 0.5008551478385925 -0.2442866712808609 0.8940378427505493 0.9389100074768066  738339.4300386906
-0.038960885256528854 0.04126972332596779 0.5007113814353943 -0.22719806432724 0.9452980160713196 0.9429071545600891  738339.430038806
-0.03923669457435608 0.040979962795972824 0.5005807876586914 -0.2229626327753067 0.9005823731422424 0.9478045105934143  738339.4300389215
-0.039528198540210724 0.04069375619292259 0.5004396438598633 -0.22963406145572662 0.9411934018135071 0.9393755197525024  738339.4300390369
-0.03983496129512787 0.04041103646159172 0.5002643465995789 -0.24595437943935394 0.9159399271011353 0.9343288540840149  738339.4300391524
-0.04015731066465378 0.04013202711939812 0.5000650882720947 -0.2725638747215271 0.9205247163772583 0.9258804321289062  738339.4300392678
-0.040495458990335464 0.039857205003499985 0.4998663067817688 -0.296087384223938 0.9457208514213562 0.9251057505607605  738339.4300393832
-0.0408499538898468 0.03958708047866821 0.4996849596500397 -0.3186241686344147 0.9537159204483032 0.9221199750900269  738339.4300394986
-0.04122105613350868 0.03932204470038414 0.4995192289352417 -0.32411128282546997 1.0047084093093872 0.9129884839057922  738339.4300397184
-0.04160897061228752 0.03906223177909851 0.4993509352207184 -0.3494786322116852 0.9864644408226013 0.9065118432044983  738339.4300397801
-0.0360659584403038 0.03831560164690018 0.49947988986968994 -0.33260947465896606 1.0436662435531616 0.9057062864303589  738339.4300398408
-0.036396972835063934 0.03805260360240936 0.499286413192749 -0.32960399985313416 1.0405524969100952 0.8977541327476501  738339.4300399625
-0.03674544766545296 0.03779485449194908 0.49906712770462036 -0.32007455825805664 1.0771920680999756 0.8922237753868103  738339.4300400664
-0.037112023681402206 0.03754235804080963 0.4988420307636261 -0.33391183614730835 1.0569045543670654 0.8844980001449585  738339.4300401818
-0.03749731183052063 0.03729528933763504 0.4986362159252167 -0.3323665261268616 1.0698907375335693 0.8678598403930664  738339.4300402972
-0.037901293486356735 0.03705376759171486 0.4984516501426697 -0.34050628542900085 1.0734081268310547 0.8580477833747864  738339.4300404127
-0.0383237786591053 0.0368177555501461 0.49827077984809875 -0.37834370136260986 1.1038063764572144 0.8508005738258362  738339.4300405281
-0.03876477852463722 0.03658755123615265 0.4980787932872772 -0.40163591504096985 1.1043710708618164 0.8455255031585693  738339.4300406436
-0.03922459855675697 0.03636367991566658 0.497877299785614 -0.4274579882621765 1.1128325462341309 0.8290435671806335  738339.4300407706
-0.039752405136823654 0.0361253023147583 0.4976535737514496 -0.4706837236881256 1.1110066175460815 0.8159904479980469  738339.4300409827
-0.04025232046842575 0.03591636195778847 0.4974495470523834 -0.49766308069229126 1.0773555040359497 0.8073131442070007  738339.4300410405
-0.034131407737731934 0.03533331677317619 0.49764353036880493 -0.5080681443214417 1.1085231304168701 0.8124357461929321  738339.4300411213
-0.034570902585983276 0.03513100743293762 0.4974420666694641 -0.511628270149231 1.0713435411453247 0.7993077039718628  738339.4300412482
-0.03502894192934036 0.0349370576441288 0.49722766876220703 -0.5059115290641785 1.1063446998596191 0.7987577319145203  738339.4300413522
-0.035505615174770355 0.03475150465965271 0.4970068037509918 -0.5050297379493713 1.0950626134872437 0.7895781397819519  738339.4300414675
-0.036001402884721756 0.034574415534734726 0.49679362773895264 -0.4627051055431366 1.0867328643798828 0.7762861251831055  738339.430041583
-0.03651648387312889 0.03440556302666664 0.4966070055961609 -0.449714720249176 1.1066313982009888 0.7644150257110596  738339.4300416984
-0.03705089911818504 0.03424444422125816 0.49644339084625244 -0.44814470410346985 1.1048051118850708 0.7564268112182617  738339.4300418139
-0.037604376673698425 0.03409077599644661 0.49628129601478577 -0.43000003695487976 1.1264407634735107 0.7481264472007751  738339.43004203
-0.038176871836185455 0.03394431248307228 0.4961099326610565 -0.42499375343322754 1.1350096464157104 0.7346204519271851  738339.4300420531
-0.03210682421922684 0.03340401500463486 0.49635687470436096 -0.42194902896881104 1.1822565793991089 0.7308496236801147  738339.4300421595
-0.03261255472898483 0.033261578530073166 0.4961806535720825 -0.42467185854911804 1.123134970664978 0.7234146595001221  738339.4300422734
-0.03313836082816124 0.033126235008239746 0.49601709842681885 -0.4457656443119049 1.1445475816726685 0.7074306011199951  738339.4300423887
-0.033684249967336655 0.03299832344055176 0.4958820044994354 -0.49304524064064026 1.0542337894439697 0.6843184232711792  738339.4300425041
-0.03424927592277527 0.03287835419178009 0.4957601726055145 -0.5203044414520264 1.0100455284118652 0.6789253950119019  738339.4300426196
-0.03483192250132561 0.03276677429676056 0.4956294596195221 -0.550792396068573 1.0257893800735474 0.6656277179718018  738339.430042735
-0.03543190658092499 0.03266405686736107 0.49548786878585815 -0.5692141652107239 0.942497193813324 0.6476604342460632  738339.4300428504
-0.036048855632543564 0.0325707383453846 0.49534618854522705 -0.5731934905052185 0.9293981790542603 0.6326323747634888  738339.4300429659
-0.030069302767515182 0.03215950354933739 0.4957875609397888 -0.5666160583496094 0.9367532134056091 0.630523145198822  738339.4300430815
-0.03060336783528328 0.0320744588971138 0.4956827163696289 -0.5482847690582275 0.8595982789993286 0.6200397610664368  738339.4300431965
-0.031153295189142227 0.03199904039502144 0.49560412764549255 -0.5115222930908203 0.8501145839691162 0.5966604351997375  738339.430043312
-0.03171839937567711 0.03193280100822449 0.49555572867393494 -0.5042458176612854 0.8548327684402466 0.5798664093017578  738339.4300434274
-0.03229840099811554 0.031875234097242355 0.49552154541015625 -0.4721083641052246 0.8158251643180847 0.5693606734275818  738339.4300435544
-0.032892629504203796 0.03182579576969147 0.49547621607780457 -0.4381875991821289 0.8285655379295349 0.5476621985435486  738339.4300436584
-0.033500831574201584 0.03178393468260765 0.4954189956188202 -0.41378840804100037 0.8461610078811646 0.5259091258049011  738339.4300437737
-0.03412344306707382 0.031749241054058075 0.49536213278770447 -0.41751834750175476 0.7720560431480408 0.5153495669364929  738339.4300439007
-0.03475990146398544 0.031721506267786026 0.4953002631664276 -0.42711320519447327 0.7812323570251465 0.5021705031394958  738339.4300440046
-0.03540976718068123 0.03170090913772583 0.4952417314052582 -0.4283374845981598 0.7665131092071533 0.4700896143913269  738339.4300441201
-0.03607320412993431 0.03168768063187599 0.4952031075954437 -0.4460109770298004 0.7179752588272095 0.4623851180076599  738339.4300442586
-0.02869112603366375 0.03172106668353081 0.4958527684211731 -0.4820839464664459 0.6613405346870422 0.4479841887950897  738339.4300443535
-0.029213858768343925 0.03173752874135971 0.49586862325668335 -0.49629127979278564 0.5999047160148621 0.41903412342071533  738339.4300444691
-0.029747508466243744 0.031762342900037766 0.4958905875682831 -0.4990958869457245 0.556146502494812 0.4107850193977356  738339.4300445846
-0.0302911177277565 0.03179561346769333 0.4959128797054291 -0.5026978254318237 0.549629807472229 0.403567910194397  738339.4300446999
-0.030844200402498245 0.031837347894907 0.49592986702919006 -0.4986361861228943 0.4733075499534607 0.3774847984313965  738339.4300448154
-0.0314059853553772 0.0318874791264534 0.49593275785446167 -0.4826829731464386 0.44554105401039124 0.3605571389198303  738339.4300449308
-0.03197557479143143 0.031945839524269104 0.4959205389022827 -0.4573952257633209 0.4710862338542938 0.3518434166908264  738339.4300450463
-0.03255290538072586 0.032012056559324265 0.4958900213241577 -0.4443438947200775 0.4339735805988312 0.32328706979751587  738339.4300451616
-0.03313784673810005 0.032085761427879333 0.4958347976207733 -0.42614901065826416 0.44685181975364685 0.30615508556365967  738339.4300452771
-0.03373010456562042 0.03216663748025894 0.4957461953163147 -0.41197386384010315 0.51970374584198 0.30598804354667664  738339.4300454627
-0.026356687769293785 0.031898289918899536 0.4962330460548401 -0.4037022292613983 0.4192521870136261 0.28884729743003845  738339.4300455094
-0.026797940954566002 0.03198975324630737 0.49610593914985657 -0.39226728677749634 0.43271690607070923 0.2727804481983185  738339.4300456247
-0.027246402576565742 0.03208789601922035 0.4959636926651001 -0.36518311500549316 0.47655364871025085 0.2715194821357727  738339.4300457365
-0.027702640742063522 0.03219246491789818 0.49581748247146606 -0.35647979378700256 0.4374265670776367 0.25464102625846863  738339.430045852
-0.028166836127638817 0.03230326622724533 0.49568554759025574 -0.3386824429035187 0.452361524105072 0.24392738938331604  738339.4300459675
-0.028638727962970734 0.032420024275779724 0.4955601394176483 -0.3325453996658325 0.5089989900588989 0.24966087937355042  738339.4300460828
-0.02916746772825718 0.03255511447787285 0.4954334795475006 -0.3208307921886444 0.5047928094863892 0.2368849217891693  738339.4300461983
-0.029657527804374695 0.03268392011523247 0.49534666538238525 -0.30356019735336304 0.549216091632843 0.2250654399394989  738339.4300463138
-0.030156996101140976 0.032818228006362915 0.4952966272830963 -0.30770647525787354 0.6015831828117371 0.2319531887769699  738339.4300464292
-0.030666621401906013 0.032957859337329865 0.4952714443206787 -0.31197163462638855 0.585185706615448 0.22310559451580048  738339.4300465446
-0.031186379492282867 0.03310273587703705 0.49524185061454773 -0.2925018072128296 0.6311246752738953 0.21842408180236816  738339.4300467239
-0.023656008765101433 0.03255545347929001 0.49607858061790466 -0.2729511559009552 0.5874675512313843 0.2132009118795395  738339.4300467877
-0.024030929431319237 0.03269336745142937 0.4960786700248718 -0.26828718185424805 0.545979917049408 0.20939229428768158  738339.4300469068
-0.024415427818894386 0.032835815101861954 0.49606412649154663 -0.24998867511749268 0.5492141842842102 0.20289766788482666  738339.4300470222
-0.024809064343571663 0.03298255801200867 0.49602314829826355 -0.2339262068271637 0.5717148184776306 0.20951662957668304  738339.4300471261
-0.025212204083800316 0.0331333689391613 0.49597179889678955 -0.21772915124893188 0.5412284731864929 0.21081383526325226  738339.4300472415
-0.025624901056289673 0.03328801691532135 0.495921790599823 -0.17744803428649902 0.5821008086204529 0.20779311656951904  738339.430047357
-0.026047328487038612 0.033446040004491806 0.49588149785995483 -0.15828406810760498 0.6447556614875793 0.2132428139448166  738339.4300474724
-0.02648048847913742 0.03360694646835327 0.4958599805831909 -0.14279277622699738 0.6483877897262573 0.21253609657287598  738339.4300475878
-0.02692505531013012 0.03377045691013336 0.49586716294288635 -0.11739619076251984 0.7124162912368774 0.214084655046463  738339.4300477379
-0.020257506519556046 0.033196013420820236 0.49652978777885437 -0.08906321972608566 0.7146180272102356 0.22207632660865784  738339.4300478277
-0.020580792799592018 0.033343806862831116 0.4966221749782562 -0.0866800919175148 0.7212727665901184 0.22158677875995636  738339.4300479366
-0.02091650478541851 0.03349307179450989 0.49672454595565796 -0.07873015105724335 0.7909994125366211 0.23010113835334778  738339.4300480605
-0.021265149116516113 0.0336437001824379 0.4968254864215851 -0.09138194471597672 0.8449520468711853 0.2330840826034546  738339.4300481643
-0.02162776328623295 0.03379572182893753 0.496923565864563 -0.0984051302075386 0.8643392324447632 0.23522697389125824  738339.4300482798
-0.022004665806889534 0.033949270844459534 0.4969983994960785 -0.09374332427978516 0.9361444115638733 0.24460992217063904  738339.4300483952
-0.02239643782377243 0.034104347229003906 0.49704092741012573 -0.09611496329307556 1.0010392665863037 0.24307496845722198  738339.4300485107
-0.022804422304034233 0.03426094725728035 0.49706247448921204 -0.09465774893760681 1.0155260562896729 0.24915727972984314  738339.4300486376
-0.023229148238897324 0.03441905602812767 0.4970542788505554 -0.09532499313354492 1.0902931690216064 0.2579987347126007  738339.430048753
-0.023671235889196396 0.034578654915094376 0.4970119893550873 -0.09075050055980682 1.1298041343688965 0.25437942147254944  738339.4300489407
-0.017641065642237663 0.03390848636627197 0.4972400367259979 -0.06552346050739288 1.0892366170883179 0.2619592249393463  738339.4300489755
-0.018001316115260124 0.034048620611429214 0.4971839487552643 -0.04497942700982094 1.1500962972640991 0.2667178511619568  738339.4300490957
-0.018380524590611458 0.034189607948064804 0.49711745977401733 -0.04297396540641785 1.116381049156189 0.26613175868988037  738339.4300492149
-0.018779339268803596 0.03433126583695412 0.4970610737800598 -0.03763961419463158 1.086279034614563 0.2704184651374817  738339.4300493187
-0.019197434186935425 0.03447353467345238 0.4970270097255707 -0.0198733638972044 1.133786916732788 0.28280195593833923  738339.4300494457
-0.01963488571345806 0.03461620211601257 0.49700993299484253 -0.012195958755910397 1.1225095987319946 0.2800886034965515  738339.4300495612
-0.02009153924882412 0.034759048372507095 0.49698686599731445 0.008041838183999062 1.1394425630569458 0.2856766879558563  738339.4300496766
-0.02056732401251793 0.03490183874964714 0.49695220589637756 0.025528941303491592 1.219148874282837 0.3021632134914398  738339.430049792
-0.021063243970274925 0.03504423424601555 0.4969148635864258 0.019556496292352676 1.205446720123291 0.3022814095020294  738339.4300499074
-0.021579638123512268 0.03518613800406456 0.4968640208244324 0.01510374341160059 1.2262877225875854 0.30605968832969666  738339.4300500229
-0.015781713649630547 0.03442157432436943 0.4970298707485199 0.021393844857811928 1.262210726737976 0.32649070024490356  738339.4300501321
-0.016221795231103897 0.034540362656116486 0.4969572424888611 -0.004127146676182747 1.2091776132583618 0.3355903625488281  738339.4300502491
-0.01668277569115162 0.034658875316381454 0.49687182903289795 -0.017620643600821495 1.222756266593933 0.3405883312225342  738339.4300503634
-0.017164437100291252 0.0347774475812912 0.4967798590660095 -0.013704171404242516 1.2417900562286377 0.35389962792396545  738339.4300504852
-0.017667120322585106 0.03489615395665169 0.49668413400650024 -0.011827112175524235 1.213927984237671 0.3676169812679291  738339.4300505982
-0.01819075457751751 0.03501494228839874 0.49658483266830444 0.00986399780958891 1.2463709115982056 0.3742848336696625  738339.4300507137
-0.018735168501734734 0.035133615136146545 0.49647244811058044 0.03725690394639969 1.2545124292373657 0.38143110275268555  738339.4300508292
-0.019300511106848717 0.035251762717962265 0.4963381290435791 0.04815905541181564 1.215725064277649 0.3957797586917877  738339.4300509446
-0.01988663710653782 0.03536904975771904 0.49618643522262573 0.06586682051420212 1.2381584644317627 0.404105544090271  738339.43005106
-0.020493580028414726 0.035485222935676575 0.4960261583328247 0.08210369199514389 1.231412649154663 0.4029962420463562  738339.4300512966
-0.021121501922607422 0.03559999167919159 0.49585863947868347 0.0874139592051506 1.2186919450759888 0.41264158487319946  738339.4300513197
-0.015883082523941994 0.03470988944172859 0.49593585729599 0.12440675497055054 1.2658259868621826 0.4340629577636719  738339.430051411
-0.016520045697689056 0.034807778894901276 0.49574485421180725 0.13586688041687012 1.2312524318695068 0.44208502769470215  738339.4300515265
-0.017121898010373116 0.03489421680569649 0.4955875873565674 0.1284916251897812 1.224745750427246 0.44706130027770996  738339.4300516419
-0.017745018005371094 0.034978196024894714 0.4954424500465393 0.10617971420288086 1.2147064208984375 0.455473393201828  738339.4300517573
-0.018389107659459114 0.03505999222397804 0.4953020215034485 0.09431032091379166 1.1844607591629028 0.46961405873298645  738339.4300518727
-0.019053619354963303 0.03513990715146065 0.4951566159725189 0.06944125145673752 1.1829830408096313 0.47815221548080444  738339.4300519882
-0.01973799429833889 0.03521827608346939 0.49499213695526123 0.05967855453491211 1.166061520576477 0.4837058484554291  738339.4300521036
-0.020442241802811623 0.03529537841677666 0.4948161244392395 0.05791860818862915 1.1462907791137695 0.49782851338386536  738339.4300522543
-0.015597905963659286 0.0343816839158535 0.4950012266635895 0.08876911550760269 1.1930408477783203 0.5098476409912109  738339.4300523556
-0.016250239685177803 0.03443491458892822 0.494823157787323 0.1011991873383522 1.1509838104248047 0.5224260687828064  738339.4300524683
-0.0169228482991457 0.0344863124191761 0.49465620517730713 0.13017310202121735 1.1440387964248657 0.5339599847793579  738339.4300525606
-0.01761520653963089 0.034535523504018784 0.4944952726364136 0.1489931046962738 1.1271495819091797 0.5446891188621521  738339.4300526831
-0.01832679659128189 0.03458218649029732 0.49432453513145447 0.157888725399971 1.071224331855774 0.5588961243629456  738339.4300527986
-0.019056806340813637 0.03462609648704529 0.49413344264030457 0.17316310107707977 1.0905663967132568 0.5687934756278992  738339.430052914
-0.01980501040816307 0.034667037427425385 0.49392759799957275 0.16883520781993866 1.0367419719696045 0.5821630954742432  738339.4300530294
-0.02057165466248989 0.034704819321632385 0.49373605847358704 0.1612764149904251 1.0079485177993774 0.5946131944656372  738339.4300531449
-0.0213563721626997 0.03473949059844017 0.49357888102531433 0.14908671379089355 1.0453276634216309 0.603942334651947  738339.4300532603
-0.02215922251343727 0.034771233797073364 0.4934529960155487 0.14884260296821594 0.9943346381187439 0.6225714683532715  738339.4300533641
-0.022979343309998512 0.03480025753378868 0.4933181703090668 0.14735294878482819 0.9934377074241638 0.6284809708595276  738339.4300536141
-0.02381598763167858 0.03482663258910179 0.49315640330314636 0.13856220245361328 1.0191975831985474 0.6440824270248413  738339.4300536256
-0.018407167866826057 0.033556412905454636 0.49354419112205505 0.15862485766410828 0.9226440191268921 0.6659422516822815  738339.4300537201
-0.019164754077792168 0.03354791924357414 0.4934329390525818 0.14321237802505493 0.9428005218505859 0.6745941042900085  738339.4300538365
-0.019938506186008453 0.03353662043809891 0.49333518743515015 0.13859710097312927 0.9087030291557312 0.6955015063285828  738339.4300539519
-0.02072804979979992 0.03352271765470505 0.4932357966899872 0.12220708280801773 0.8443270921707153 0.7070907354354858  738339.4300540674
-0.0215324554592371 0.03350641205906868 0.4931279718875885 0.11650646477937698 0.8606733679771423 0.7194947600364685  738339.4300541828
-0.022351611405611038 0.03348785266280174 0.49303218722343445 0.127675399184227 0.8491716980934143 0.7364659905433655  738339.4300542983
-0.02318577840924263 0.033466942608356476 0.4929637908935547 0.1223355382680893 0.883115291595459 0.7433413863182068  738339.4300544137
-0.02403508871793747 0.033443648368120193 0.49291709065437317 0.11471192538738251 0.869907796382904 0.759548008441925  738339.4300545291
-0.024899395182728767 0.03341812267899513 0.49287164211273193 0.11494508385658264 0.8965526819229126 0.7771351933479309  738339.4300547648
-0.025778520852327347 0.03339046239852905 0.49280866980552673 0.10841938108205795 0.8812738656997681 0.7812463641166687  738339.4300547879
-0.020865444093942642 0.03193771466612816 0.4932824671268463 0.1587095558643341 0.8897913694381714 0.7800512909889221  738339.4300548814
-0.02168441005051136 0.03186540678143501 0.49323970079421997 0.15037372708320618 0.8596803545951843 0.7945051789283752  738339.4300549931
-0.022518550977110863 0.031790200620889664 0.49321290850639343 0.14889848232269287 0.8300122618675232 0.8057008981704712  738339.4300551092
-0.023367159068584442 0.03171221911907196 0.4931890368461609 0.15474018454551697 0.8087693452835083 0.8227329850196838  738339.4300552132
-0.024229537695646286 0.031631480902433395 0.49314936995506287 0.1408517062664032 0.7736453413963318 0.8311778903007507  738339.4300553402
-0.025105413049459457 0.031548015773296356 0.4931083917617798 0.15762770175933838 0.7798587083816528 0.8437086939811707  738339.4300554555
-0.025994740426540375 0.03146175295114517 0.4930814206600189 0.15430791676044464 0.7695124745368958 0.85015469789505  738339.430055571
-0.02689743973314762 0.031372591853141785 0.49306559562683105 0.14241336286067963 0.7777006030082703 0.8553017377853394  738339.4300556749
-0.027813341468572617 0.03128069266676903 0.4930494427680969 0.13581879436969757 0.8122601509094238 0.8713704943656921  738339.4300558019
-0.022928856313228607 0.03019709140062332 0.49368414282798767 0.11957040429115295 0.789859414100647 0.875541090965271  738339.4300559169
-0.02377357706427574 0.030081070959568024 0.4936738908290863 0.11285180598497391 0.805586040019989 0.886130154132843  738339.4300560342
-0.024632010608911514 0.02996283583343029 0.493669718503952 0.09203914552927017 0.7768203020095825 0.8938907384872437  738339.4300561426
-0.02550416626036167 0.02984260581433773 0.4936806559562683 0.0758066400885582 0.759783148765564 0.9024460315704346  738339.4300562581
-0.02638961747288704 0.029720716178417206 0.49370428919792175 0.062094032764434814 0.771161675453186 0.9177014827728271  738339.4300563736
-0.027288028970360756 0.0295974463224411 0.49371859431266785 0.04174378514289856 0.7162073850631714 0.9262584447860718  738339.430056489
-0.028199050575494766 0.029473086819052696 0.49372363090515137 0.031208517029881477 0.7405166625976562 0.9419499635696411  738339.4300566044
-0.02912258356809616 0.029347892850637436 0.49373260140419006 0.022033963352441788 0.7206140756607056 0.9481202960014343  738339.4300567198
-0.030153144150972366 0.029209407046437263 0.493762344121933 0.014733228832483292 0.6860846281051636 0.9557745456695557  738339.4300568353
-0.031103016808629036 0.029082952067255974 0.49381887912750244 0.020618343725800514 0.7384026050567627 0.9670631885528564  738339.4300570757
-0.03206528723239899 0.02895597741007805 0.493890643119812 0.015247927978634834 0.6602723598480225 0.9723809957504272  738339.4300570987
-0.027161715552210808 0.027846001088619232 0.4946991801261902 0.02262943983078003 0.6575778126716614 0.981852114200592  738339.4300571869
-0.028045689687132835 0.02769935503602028 0.49475958943367004 0.01827385649085045 0.6377198100090027 0.9768266081809998  738339.4300573074
-0.028940994292497635 0.027552161365747452 0.4948425590991974 0.019016331061720848 0.5618820190429688 0.9794160723686218  738339.4300574173
-0.029846781864762306 0.027404459193348885 0.49494972825050354 0.00916975550353527 0.5898739695549011 0.9831554293632507  738339.4300575327
-0.030762502923607826 0.027256345376372337 0.4950640797615051 0.004708712920546532 0.524613618850708 0.9869855642318726  738339.4300576481
-0.03168744966387749 0.027107957750558853 0.49514368176460266 0.0071854726411402225 0.5380868911743164 0.9892572164535522  738339.4300577636
-0.03262113407254219 0.02695932239294052 0.4951862096786499 0.002654766198247671 0.5633202195167542 0.9839063286781311  738339.430057879
-0.03356435149908066 0.02681043930351734 0.49523982405662537 0.002723265904933214 0.4946027994155884 0.987384021282196  738339.4300580175
-0.028921307995915413 0.02600141428411007 0.495858758687973 -0.015262799337506294 0.5316060781478882 0.9934844970703125  738339.4300581112
-0.029780639335513115 0.025843733921647072 0.49595916271209717 -0.0078345388174057 0.5039047598838806 1.000028133392334  738339.4300582249
-0.03064861334860325 0.025686096400022507 0.4960337281227112 -0.009710846468806267 0.47097882628440857 1.0021780729293823  738339.4300583381
-0.031524691730737686 0.02552846074104309 0.4960772693157196 -0.004198085982352495 0.5052564144134521 1.0014601945877075  738339.430058464
-0.03240901231765747 0.025370800867676735 0.49610817432403564 0.007215606514364481 0.45779064297676086 0.9955478310585022  738339.4300585735
-0.0333014540374279 0.025212977081537247 0.4961232841014862 0.002798669971525669 0.46725237369537354 0.9872244000434875  738339.4300587005
-0.034201767295598984 0.025054931640625 0.4961329698562622 0.021947231143712997 0.460260808467865 0.9772257208824158  738339.4300588043
-0.03511011227965355 0.0248965322971344 0.4961545467376709 0.010191546753048897 0.452088862657547 0.9612994194030762  738339.4300589198
-0.03602636978030205 0.024737725034356117 0.49618998169898987 0.005106821656227112 0.47457069158554077 0.9525752663612366  738339.4300590352
-0.036950524896383286 0.024578657001256943 0.4962212145328522 0.016007771715521812 0.45529451966285706 0.9338390827178955  738339.4300591507
-0.03788246959447861 0.02441929094493389 0.4962306618690491 0.0017308059614151716 0.48149505257606506 0.921554684638977  738339.4300592892
