% x y z r p yw  738318.7460038022
0.10619471967220306 -0.5163828134536743 0.5144770741462708 -1.2007156610488892 -1.4536421298980713 -0.19748377799987793  738318.7461846657
0.11207149177789688 -0.5191568732261658 0.5146437883377075 -1.248468041419983 -1.2608587741851807 -0.19914540648460388  738318.7461848963
0.1145852580666542 -0.5228647589683533 0.5154287815093994 -1.2468796968460083 -0.9162514805793762 -0.17129583656787872  738318.7461849771
0.11956615746021271 -0.5255913734436035 0.5147510766983032 -1.145439863204956 -0.7855481505393982 -0.17169299721717834  738318.7461852542
0.12283062189817429 -0.5265809893608093 0.5148963928222656 -1.1006510257720947 -0.6648356318473816 -0.16514362394809723  738318.7461853699
0.1287575364112854 -0.5291125178337097 0.51556795835495 -0.9456133842468262 -0.6465895175933838 -0.1890067309141159  738318.7461855543
0.1314895898103714 -0.530196487903595 0.5157836675643921 -0.9161645174026489 -0.6374600529670715 -0.18820282816886902  738318.7461858223
0.13738207519054413 -0.5323880314826965 0.5162183046340942 -0.9081631302833557 -0.570156991481781 -0.1929025650024414  738318.7461859724
0.1376710832118988 -0.5353922843933105 0.5154104232788086 -0.8952701687812805 -0.5320395827293396 -0.19382984936237335  738318.746186157
0.14663057029247284 -0.5385884642601013 0.5159879922866821 -1.0479270219802856 -0.34841209650039673 -0.223542720079422  738318.7461865149
0.15229135751724243 -0.5407359600067139 0.5163057446479797 -1.1250379085540771 -0.26428982615470886 -0.22335204482078552  738318.7461866649
0.15847758948802948 -0.5430355072021484 0.5167101621627808 -1.159136176109314 -0.24226802587509155 -0.23573128879070282  738318.7461868157
0.16069626808166504 -0.5458342432975769 0.516568660736084 -1.142269253730774 -0.1429802030324936 -0.216862291097641  738318.7461870143
0.1752547025680542 -0.5504658222198486 0.5168075561523438 -1.1577684879302979 -0.4995434582233429 -0.25564301013946533  738318.7461873494
0.18044407665729523 -0.5519073009490967 0.5170336961746216 -1.1783161163330078 -0.6351103186607361 -0.2778375744819641  738318.7461875799
0.1834569126367569 -0.5532244443893433 0.517087996006012 -1.1795494556427002 -0.5876261591911316 -0.27930188179016113  738318.7461877185
0.18877150118350983 -0.5545376539230347 0.5138087272644043 -1.1764951944351196 -0.5635999441146851 -0.298749715089798  738318.7461879262
0.19220095872879028 -0.5582945346832275 0.5140432119369507 -1.1986870765686035 -0.4291036128997803 -0.29145732522010803  738318.7461880846
0.2014947384595871 -0.5607402324676514 0.514051616191864 -1.187459111213684 -0.2640276849269867 -0.2910570502281189  738318.7461881655
0.20357902348041534 -0.561107873916626 0.5139594674110413 -1.1729352474212646 -0.26810222864151 -0.2965978980064392  738318.746188281
0.20634368062019348 -0.5617989301681519 0.5138617157936096 -1.1879005432128906 -0.2864342927932739 -0.3148350417613983  738318.7461884541
0.20928220450878143 -0.5624825954437256 0.5137510299682617 -1.1679258346557617 -0.24290914833545685 -0.3063468933105469  738318.7461885811
0.21809375286102295 -0.564598023891449 0.5135554075241089 -1.2023979425430298 -0.3219675123691559 -0.30944308638572693  738318.7461887427
0.217248797416687 -0.5666844844818115 0.5140184164047241 -1.2039967775344849 -0.2876366972923279 -0.28464168310165405  738318.7461889735
0.22298066318035126 -0.5679312348365784 0.5140989422798157 -1.2546261548995972 -0.31821829080581665 -0.29656702280044556  738318.7461895366
0.22464823722839355 -0.5683828592300415 0.5142183899879456 -1.2547365427017212 -0.283752977848053 -0.29314881563186646  738318.746189756
0.23072198033332825 -0.5694183707237244 0.5158829092979431 -1.2917240858078003 -0.2421160787343979 -0.2815960645675659  738318.7461899292
0.23370161652565002 -0.5698568224906921 0.5160846710205078 -1.3217185735702515 -0.3136585056781769 -0.28579920530319214  738318.7461900908
0.23531582951545715 -0.5725354552268982 0.5170032978057861 -1.3437373638153076 -0.16969701647758484 -0.2867240607738495  738318.7461902869
0.23798181116580963 -0.5728766322135925 0.5144783854484558 -1.3524093627929688 -0.2495821714401245 -0.3063104748725891  738318.7461903132
0.24613384902477264 -0.5740890502929688 0.5149360299110413 -1.313467025756836 -0.4074241518974304 -0.2991388738155365  738318.746190622
0.24892739951610565 -0.5733460783958435 0.5146269202232361 -1.3291946649551392 -0.5532945394515991 -0.31279197335243225  738318.7461908298
0.25465601682662964 -0.5745393633842468 0.514971911907196 -1.2933764457702637 -0.5797795653343201 -0.31659382581710815  738318.7461909452
0.2573294937610626 -0.5753074288368225 0.5151770710945129 -1.2962244749069214 -0.6279182434082031 -0.3374999165534973  738318.7461911645
0.26049497723579407 -0.5751822590827942 0.5147880911827087 -1.3028745651245117 -0.710819661617279 -0.3585520386695862  738318.7461912798
0.26571545004844666 -0.5754894614219666 0.5151641964912415 -1.2738075256347656 -0.7069032788276672 -0.3533230125904083  738318.7461915571
0.26650291681289673 -0.5785505175590515 0.5158171653747559 -1.2061768770217896 -0.7751902341842651 -0.3396921753883362  738318.7461916149
0.27135300636291504 -0.5797058343887329 0.5162375569343567 -1.129341721534729 -0.6724117398262024 -0.3472214639186859  738318.7461916953
0.27771973609924316 -0.5797480940818787 0.5167184472084045 -1.1176012754440308 -0.6593115329742432 -0.37656402587890625  738318.7461919838
0.2839283347129822 -0.5800554156303406 0.5171017050743103 -1.1144053936004639 -0.6606165170669556 -0.3802598714828491  738318.7461920995
0.28639650344848633 -0.5805383920669556 0.5173851251602173 -1.1344146728515625 -0.682873547077179 -0.37895599007606506  738318.7461922148
0.2890516221523285 -0.5803587436676025 0.5176770091056824 -1.1628952026367188 -0.7570838332176208 -0.38962674140930176  738318.7461923186
0.2916317582130432 -0.5805710554122925 0.5179691314697266 -1.1712661981582642 -0.7572775483131409 -0.39019933342933655  738318.7461925496
0.2977807819843292 -0.5830663442611694 0.5214104056358337 -1.1646432876586914 -0.8435742259025574 -0.3727169930934906  738318.746192792
0.3038384020328522 -0.5833846926689148 0.5222766399383545 -1.1783219575881958 -0.8277499079704285 -0.3590586483478546  738318.7461930113
0.3067726790904999 -0.5831669569015503 0.5218333005905151 -1.1767233610153198 -0.7942946553230286 -0.3622652590274811  738318.7461931267
0.31277114152908325 -0.5831342935562134 0.5226196050643921 -1.1560574769973755 -0.6455101370811462 -0.3497765362262726  738318.7461934037
0.31429871916770935 -0.5857354998588562 0.5231896042823792 -1.1111692190170288 -0.6288084387779236 -0.3530488908290863  738318.7461936461
0.3170640170574188 -0.5854363441467285 0.5190300345420837 -1.088586688041687 -0.5604088306427002 -0.3558432161808014  738318.7461938077
0.32608553767204285 -0.5855938196182251 0.5192314982414246 -0.93311607837677 -0.4093003273010254 -0.33746007084846497  738318.7461941319
0.32850879430770874 -0.5849587321281433 0.5192554593086243 -0.9547107815742493 -0.33234333992004395 -0.332237184047699  738318.7461943512
0.33486834168434143 -0.5846146941184998 0.5173534154891968 -0.9391749501228333 -0.22728309035301208 -0.3199158310890198  738318.7461945821
0.3408258855342865 -0.5846017599105835 0.5171536207199097 -0.9707134962081909 -0.17753002047538757 -0.31760451197624207  738318.7461947668
0.34347859025001526 -0.5846091508865356 0.5146065354347229 -0.9754494428634644 -0.15762878954410553 -0.3146078586578369  738318.746194986
0.3463967442512512 -0.5844306349754333 0.5143744945526123 -0.9875835180282593 -0.12802252173423767 -0.30505916476249695  738318.746195044
0.3552788496017456 -0.586341142654419 0.5141696333885193 -0.929542601108551 0.09765941649675369 -0.29721468687057495  738318.7461951993
0.35832157731056213 -0.5860669016838074 0.5139424800872803 -0.9057961702346802 0.1524008959531784 -0.29264384508132935  738318.7461954417
0.36428898572921753 -0.5855693817138672 0.5135142803192139 -0.8032121062278748 0.2583255469799042 -0.2830717861652374  738318.7461956149
0.36516061425209045 -0.5846439003944397 0.5107696056365967 -0.7675479650497437 0.3893008232116699 -0.27200746536254883  738318.7461959035
0.36967355012893677 -0.5869438648223877 0.5105268955230713 -0.7111886739730835 0.3705734312534332 -0.2657787799835205  738318.7461962084
0.3809620440006256 -0.5855377912521362 0.5085959434509277 -0.5705997943878174 0.5754324793815613 -0.24369598925113678  738318.7461966701
0.38649627566337585 -0.5849034786224365 0.5080618858337402 -0.46885424852371216 0.6396751403808594 -0.21643225848674774  738318.7461968433
0.3892875909805298 -0.584608256816864 0.5065875053405762 -0.4480140209197998 0.7091456651687622 -0.2034962773323059  738318.7461970164
0.39695215225219727 -0.587070643901825 0.5061506032943726 -0.2741445004940033 0.9590725898742676 -0.1719149798154831  738318.7461971318
0.399539053440094 -0.5866008996963501 0.5058099627494812 -0.2488403171300888 1.0293461084365845 -0.18209879100322723  738318.7461977011
0.40384575724601746 -0.5858461856842041 0.5053940415382385 -0.12968780100345612 1.157718300819397 -0.1567954570055008  738318.7461977588
0.4096231460571289 -0.5852915048599243 0.5050541162490845 -0.07757251709699631 1.2629438638687134 -0.12454169243574142  738318.7461978742
0.41247254610061646 -0.585037350654602 0.5052618980407715 -0.03507819399237633 1.2733598947525024 -0.10453341901302338  738318.7461979435
0.4173530042171478 -0.5839943289756775 0.505129337310791 -0.04394783824682236 1.3119696378707886 -0.10957576334476471  738318.746198105
0.4195009171962738 -0.5841512084007263 0.5051160454750061 -0.04582924768328667 1.3154710531234741 -0.10252460092306137  738318.7461982205
0.42202189564704895 -0.5838196873664856 0.5050289034843445 0.0016420775791630149 1.2956973314285278 -0.09832579642534256  738318.7461985071
0.4215947687625885 -0.586657702922821 0.5055014491081238 0.028529852628707886 1.4069490432739258 -0.08241929858922958  738318.7461985189
0.4291810691356659 -0.5861846804618835 0.5058575868606567 0.11278364062309265 1.5748385190963745 -0.04906308278441429  738318.7461988076
0.43393081426620483 -0.5856761336326599 0.5062257051467896 0.18184258043766022 1.6789791584014893 -0.04968097805976868  738318.7461989807
0.43620556592941284 -0.5854148864746094 0.5064418911933899 0.21648985147476196 1.6718627214431763 -0.04733465611934662  738318.7461990962
0.4386650025844574 -0.5880669951438904 0.5089354515075684 0.29129812121391296 1.7091798782348633 -0.05415003001689911  738318.7461992117
0.43990641832351685 -0.5876574516296387 0.5093415975570679 0.2700784504413605 1.7074503898620605 -0.04856859892606735  738318.7461995464
0.44406381249427795 -0.5871076583862305 0.5072314739227295 0.26752543449401855 1.7320433855056763 -0.03648814558982849  738318.7461997658
0.44563034176826477 -0.5869177579879761 0.5074658393859863 0.2533602714538574 1.6931941509246826 -0.0361139178276062  738318.7461999273
0.44950875639915466 -0.5870378613471985 0.5079157948493958 0.2191443145275116 1.722050428390503 -0.029011700302362442  738318.7462001009
0.4535382091999054 -0.5865493416786194 0.5046212077140808 0.14447826147079468 1.5795133113861084 -0.019247546792030334  738318.7462002852
0.45726558566093445 -0.5861578583717346 0.5047221183776855 0.07900270819664001 1.4811511039733887 0.001650494639761746  738318.7462005625
0.46084707975387573 -0.5886353850364685 0.5097481608390808 -0.019640091806650162 1.3753820657730103 0.005705825053155422  738318.7462008161
0.46241891384124756 -0.5885319709777832 0.5100668668746948 -0.07218322157859802 1.392576813697815 0.014815017580986023  738318.746201105
0.46384644508361816 -0.5882338285446167 0.5103930830955505 -0.12204056233167648 1.3581825494766235 0.01829603500664234  738318.7462011742
0.466811865568161 -0.5882555246353149 0.5108335614204407 -0.1958947479724884 1.2748690843582153 0.031062087044119835  738318.7462014625
0.46914219856262207 -0.5905801653862 0.5119977593421936 -0.25562649965286255 1.1204829216003418 0.038074854761362076  738318.7462016937
0.47065290808677673 -0.5906113982200623 0.5107359886169434 -0.25494033098220825 1.0938361883163452 0.031682778149843216  738318.746201809
0.47507813572883606 -0.5904489159584045 0.5114380121231079 -0.29216814041137695 1.023755669593811 0.012900229543447495  738318.7462022636
0.47645553946495056 -0.5903559327125549 0.5106629729270935 -0.28820356726646423 1.0640414953231812 0.0057149361819028854  738318.746202506
0.4798048734664917 -0.5897752642631531 0.5109001398086548 -0.2742624878883362 0.9783754348754883 -0.004408782813698053  738318.74620261
0.48139023780822754 -0.5897229313850403 0.5109987258911133 -0.25149911642074585 1.0260777473449707 -0.00718980748206377  738318.7462027946
0.48182234168052673 -0.5916956663131714 0.5102548003196716 -0.2608163058757782 1.0123600959777832 -0.02851264923810959  738318.746203014
0.485744833946228 -0.5916957855224609 0.5103952288627625 -0.2481919825077057 1.047926664352417 -0.06151087209582329  738318.7462030959
0.48682403564453125 -0.5914781093597412 0.5094769597053528 -0.26606470346450806 1.0454899072647095 -0.06412987411022186  738318.7462032806
0.4878694713115692 -0.5914731025695801 0.5094850063323975 -0.2908437252044678 1.0730679035186768 -0.07002222537994385  738318.746203396
0.4901522696018219 -0.5913860201835632 0.5095227360725403 -0.32425791025161743 0.9969480037689209 -0.08328419923782349  738318.7462036269
0.4919140934944153 -0.5908897519111633 0.5088549256324768 -0.4131139814853668 0.9989607930183411 -0.09196411818265915  738318.7462037423
0.49299389123916626 -0.5908285975456238 0.5088210105895996 -0.45533987879753113 0.9097011089324951 -0.11073511838912964  738318.7462039039
0.49564874172210693 -0.5933797359466553 0.5083116292953491 -0.5512966513633728 0.7478402853012085 -0.12104801088571548  738318.7462040931
0.4977817237377167 -0.5931432843208313 0.5082840323448181 -0.5284205079078674 0.7644139528274536 -0.11797687411308289  738318.7462042894
0.5002051591873169 -0.5937880277633667 0.5105893611907959 -0.5326700806617737 0.7384265065193176 -0.1493048071861267  738318.7462046242
0.5010581016540527 -0.5934107303619385 0.5106751918792725 -0.5239371657371521 0.7839791774749756 -0.15945959091186523  738318.746204855
0.5016282200813293 -0.5933746695518494 0.5106704235076904 -0.5243860483169556 0.7770984768867493 -0.15946485102176666  738318.7462049127
0.5031617283821106 -0.5952882766723633 0.5118451118469238 -0.6043453812599182 0.6632540225982666 -0.1603318154811859  738318.746205259
0.5040267109870911 -0.595155656337738 0.5119909048080444 -0.6318626403808594 0.5922633409500122 -0.16890674829483032  738318.7462054437
0.5047216415405273 -0.5944275259971619 0.5121210217475891 -0.6746277213096619 0.5856872200965881 -0.1907600611448288  738318.7462054591
0.5053580403327942 -0.5938941240310669 0.5117489695549011 -0.7223562598228455 0.5978022217750549 -0.21563640236854553  738318.7462057362
0.5071935057640076 -0.5934957265853882 0.5118938088417053 -0.7381667494773865 0.49988144636154175 -0.2501073479652405  738318.7462059208
0.5079644918441772 -0.5938084125518799 0.5119649767875671 -0.7696334719657898 0.4905717372894287 -0.2657497227191925  738318.7462061286
0.5107030272483826 -0.594823956489563 0.5105723142623901 -0.7727066874504089 0.26944464445114136 -0.36902663111686707  738318.746206498
0.5122184157371521 -0.5937305092811584 0.5085954666137695 -0.7899946570396423 0.20887909829616547 -0.4193754196166992  738318.7462066135
0.5135762691497803 -0.5933380722999573 0.5082370042800903 -0.879998505115509 0.21473060548305511 -0.492967426776886  738318.7462068443
0.5143517255783081 -0.5928365588188171 0.5080468058586121 -0.8835612535476685 0.17867672443389893 -0.5146462917327881  738318.7462070637
0.5151633620262146 -0.5945161581039429 0.5054561495780945 -0.8359527587890625 0.05837192013859749 -0.538939356803894  738318.7462073638
0.5174054503440857 -0.5935754179954529 0.5045569539070129 -0.8559261560440063 0.046601925045251846 -0.589601993560791  738318.7462077657
0.5189640522003174 -0.5928542613983154 0.504695475101471 -0.8487496972084045 0.014020583592355251 -0.6505932807922363  738318.7462080542
0.521079957485199 -0.5916938781738281 0.5044925212860107 -0.8782781958580017 0.026406297460198402 -0.6698920130729675  738318.7462082274
0.5222510695457458 -0.591490626335144 0.5043385624885559 -0.8562639951705933 -0.001828752807341516 -0.6814818978309631  738318.7462083428
0.523658037185669 -0.590444028377533 0.5048055648803711 -0.8394321203231812 -0.032336559146642685 -0.7106584310531616  738318.746208516
0.5243723392486572 -0.590291440486908 0.5047426819801331 -0.8549966812133789 0.0019030115799978375 -0.7207913994789124  738318.7462086318
0.5247167348861694 -0.5912192463874817 0.5051035284996033 -0.8452519774436951 -0.03553808853030205 -0.725074291229248  738318.7462089781
0.5271368622779846 -0.5900387167930603 0.5045754909515381 -0.7886002063751221 0.020144743844866753 -0.7812316417694092  738318.746209463
0.5278559923171997 -0.5893093943595886 0.5045380592346191 -0.7322899103164673 0.0707402154803276 -0.783891499042511  738318.7462096938
0.5295355319976807 -0.5883764028549194 0.5045021176338196 -0.6015691757202148 0.07175804674625397 -0.8064624071121216  738318.746209867
0.5312590599060059 -0.5871990919113159 0.5059805512428284 -0.5150725245475769 0.201054185628891 -0.8099339604377747  738318.7462099362
0.5318524241447449 -0.5879361033439636 0.5062516927719116 -0.41110366582870483 0.22922562062740326 -0.8172070384025574  738318.7462100865
0.5350879430770874 -0.5873586535453796 0.5071529150009155 -0.32543787360191345 0.26043611764907837 -0.8561310172080994  738318.7462104906
0.5360504388809204 -0.5870606303215027 0.506041944026947 -0.29882341623306274 0.28890809416770935 -0.8575363755226135  738318.7462107214
0.5369781851768494 -0.5858141183853149 0.5062035918235779 -0.29995760321617126 0.36882805824279785 -0.8501622080802917  738318.7462108945
0.5385141372680664 -0.5847769379615784 0.5065420269966125 -0.1772298812866211 0.3941672742366791 -0.850956380367279  738318.7462112412
0.5394832491874695 -0.5859555006027222 0.5056127309799194 -0.1516314297914505 0.3918781578540802 -0.8702924847602844  738318.7462113681
0.5410289168357849 -0.5851873159408569 0.5058344006538391 0.00034648505970835686 0.6212195754051208 -0.8689263463020325  738318.7462116567
0.5417917370796204 -0.5846421718597412 0.5059364438056946 0.05927736684679985 0.5924723744392395 -0.8752240538597107  738318.7462118645
0.5422691106796265 -0.5842576026916504 0.5060529112815857 0.11881750077009201 0.6107268333435059 -0.880174994468689  738318.7462120376
0.5435125231742859 -0.5834002494812012 0.5053505897521973 0.21418273448944092 0.8203743100166321 -0.8723495006561279  738318.746212211
0.5455307960510254 -0.5823233723640442 0.5054426789283752 0.2848731279373169 0.8337498903274536 -0.8967164754867554  738318.7462123262
0.5462528467178345 -0.5817899107933044 0.5052768588066101 0.3345091640949249 0.9024949073791504 -0.9069204926490784  738318.7462125419
0.546736478805542 -0.5828191041946411 0.5057042837142944 0.3706352710723877 0.9626435041427612 -0.9300486445426941  738318.7462130844
0.5473862290382385 -0.5823047757148743 0.5057748556137085 0.38139063119888306 0.9378121495246887 -0.9381169080734253  738318.7462132692
0.5486401915550232 -0.5813387632369995 0.5048064589500427 0.4433804750442505 0.8927931785583496 -0.956535816192627  738318.7462134885
0.5500220060348511 -0.5823055505752563 0.5048180222511292 0.4947558343410492 0.9758613109588623 -0.9645621180534363  738318.7462135454
0.5510385632514954 -0.5812848210334778 0.5048357248306274 0.5568007230758667 1.0140010118484497 -0.9848010540008545  738318.7462137187
0.5517765879631042 -0.581037700176239 0.5048467516899109 0.5487914085388184 1.023166537284851 -1.0052579641342163  738318.7462138918
0.5518640279769897 -0.5806276798248291 0.5048781633377075 0.5294622182846069 1.0678203105926514 -1.0253844261169434  738318.7462140649
0.5527740120887756 -0.5817927718162537 0.5052984952926636 0.4901945888996124 1.117247223854065 -1.0279202461242676  738318.7462142266
0.554028332233429 -0.5807549357414246 0.504822850227356 0.4661869704723358 1.041038155555725 -1.0611494779586792  738318.7462146536
0.5549389719963074 -0.5803713798522949 0.5047567486763 0.441438764333725 1.0908524990081787 -1.0842807292938232  738318.7462148403
0.5557659268379211 -0.5797698497772217 0.5044130682945251 0.4491542875766754 1.085648536682129 -1.103649377822876  738318.7462150133
0.5572330355644226 -0.578325629234314 0.5044547915458679 0.37912750244140625 1.101569414138794 -1.1231052875518799  738318.7462152443
0.5580629706382751 -0.5778319835662842 0.5045306086540222 0.3993873596191406 0.9220831990242004 -1.1477640867233276  738318.7462154174
0.5592209100723267 -0.5790216326713562 0.505553662776947 0.3354127109050751 0.8592833280563354 -1.1724787950515747  738318.7462154174
0.5601006746292114 -0.5783406496047974 0.5057816505432129 0.30909112095832825 0.7012652158737183 -1.1857465505599976  738318.7462157637
0.560841977596283 -0.5776892304420471 0.5045602321624756 0.24023345112800598 0.7733135223388672 -1.2067468166351318  738318.7462158918
0.561468780040741 -0.5775602459907532 0.5047481656074524 0.17886418104171753 0.6335977911949158 -1.2196037769317627  738318.7462161573
0.5604946613311768 -0.5788029432296753 0.505371630191803 0.06992652267217636 0.9100699424743652 -1.2875772714614868  738318.7462163998
0.5607879757881165 -0.578575074672699 0.5055076479911804 0.023736385628581047 0.8582372665405273 -1.2976716756820679  738318.7462166307
0.5611653923988342 -0.5782669186592102 0.5058572292327881 -0.00501843448728323 0.754574179649353 -1.29813814163208  738318.7462170257
0.5609582662582397 -0.5780754685401917 0.5060185790061951 -0.027171583846211433 0.7546288371086121 -1.3107738494873047  738318.7462172104
0.5610925555229187 -0.5776607394218445 0.5063787698745728 0.022606302052736282 0.624822735786438 -1.3008195161819458  738318.7462173601
0.5612273216247559 -0.5770296454429626 0.5049236416816711 -0.059129685163497925 0.37094321846961975 -1.285945177078247  738318.7462176026
0.5623211860656738 -0.5802062749862671 0.5054662227630615 -0.039457883685827255 0.40402698516845703 -1.26661217212677  738318.7462177757
0.5625689029693604 -0.5804503560066223 0.5063365697860718 -0.12721002101898193 0.2900911271572113 -1.2539721727371216  738318.7462181223
0.5625583529472351 -0.5802128314971924 0.5066196918487549 -0.14427918195724487 0.2907908856868744 -1.2480924129486084  738318.7462181802
0.5625680685043335 -0.5801054239273071 0.5068362355232239 -0.09732108563184738 0.31786245107650757 -1.2393739223480225  738318.7462182494
0.5625731348991394 -0.57999587059021 0.5069329738616943 -0.07432427257299423 0.26929378509521484 -1.2404425144195557  738318.7462183652
0.5629064440727234 -0.5819485187530518 0.5075963139533997 -0.051969461143016815 0.3768748641014099 -1.2405807971954346  738318.7462185498
0.5630358457565308 -0.5817248821258545 0.5028272271156311 -0.16036128997802734 0.2118624746799469 -1.2547723054885864  738318.7462189421
0.5630159378051758 -0.5816505551338196 0.5026493072509766 -0.23591077327728271 0.17015090584754944 -1.2474303245544434  738318.7462190575
0.563461184501648 -0.5819813013076782 0.5026862025260925 -0.2782769501209259 0.14832301437854767 -1.249788761138916  738318.7462192307
0.5634523630142212 -0.5819136500358582 0.5025814175605774 -0.3124820590019226 0.029969101771712303 -1.2486190795898438  738318.7462193466
0.5630831122398376 -0.5819163918495178 0.5024915933609009 -0.3793942332267761 -0.06941992044448853 -1.2446932792663574  738318.7462193815
0.563170313835144 -0.5818093419075012 0.5024102330207825 -0.42141133546829224 -0.06490949541330338 -1.2555413246154785  738318.7462194279
0.5638279914855957 -0.5835666060447693 0.5032894611358643 -0.46058204770088196 -0.04004473239183426 -1.2492567300796509  738318.7462195547
0.5636968612670898 -0.5833024978637695 0.5034372806549072 -0.6245892643928528 -0.22229060530662537 -1.2518290281295776  738318.7462201434
0.5640413761138916 -0.5831868648529053 0.5029638409614563 -0.6937146782875061 -0.14260198175907135 -1.2353873252868652  738318.7462203165
0.5639028549194336 -0.5830567479133606 0.5030321478843689 -0.7061678171157837 -0.19533227384090424 -1.2245817184448242  738318.7462206314
0.5639740824699402 -0.5829358100891113 0.5031139254570007 -0.7146947979927063 -0.17375682294368744 -1.221171259880066  738318.7462208738
0.5639704465866089 -0.5826888084411621 0.5031918287277222 -0.7487245202064514 -0.11044704169034958 -1.2011628150939941  738318.7462210816
0.5654012560844421 -0.5840802192687988 0.5040891766548157 -0.6528689861297607 -0.02805798128247261 -1.1481159925460815  738318.746221451
0.5652147531509399 -0.5843977332115173 0.5023743510246277 -0.581260085105896 -0.0250968299806118 -1.1327190399169922  738318.7462216652
0.5654618740081787 -0.5841497182846069 0.5026674866676331 -0.5195619463920593 0.12883533537387848 -1.1269259452819824  738318.7462217229
0.5657416582107544 -0.5838121175765991 0.5014562010765076 -0.47407037019729614 0.0870983898639679 -1.1114537715911865  738318.746221896
0.5650438666343689 -0.5834609866142273 0.5015211701393127 -0.4902697801589966 0.09215252101421356 -1.0968663692474365  738318.746222185
0.5651283860206604 -0.5831210613250732 0.5015814304351807 -0.5493806004524231 0.14222896099090576 -1.0859966278076172  738318.7462223577
0.5673023462295532 -0.5857690572738647 0.5010093450546265 -0.4514169991016388 0.002886582864448428 -1.0595124959945679  738318.7462226349
0.5674749612808228 -0.58545982837677 0.5010236501693726 -0.5244693160057068 0.06763966381549835 -1.0344600677490234  738318.7462227733
0.5677162408828735 -0.5848718285560608 0.5018592476844788 -0.5132014155387878 -0.034845657646656036 -1.0062255859375  738318.7462230042
0.5681620836257935 -0.584661602973938 0.5019733905792236 -0.5323420763015747 0.04935159161686897 -0.9875555634498596  738318.7462232235
0.5696302056312561 -0.5865287184715271 0.5014133453369141 -0.45346134901046753 0.021283090114593506 -0.9647976756095886  738318.7462234428
0.5708567500114441 -0.5864297747612 0.5017557740211487 -0.4568668007850647 0.18051108717918396 -0.9029082655906677  738318.7462238468
0.571010947227478 -0.5862592458724976 0.5018910765647888 -0.4273234009742737 0.17394430935382843 -0.8856453895568848  738318.7462241774
0.5708267688751221 -0.5855604410171509 0.5021284222602844 -0.3836142420768738 0.34372326731681824 -0.8442795276641846  738318.7462242006
0.5708348751068115 -0.585331380367279 0.5022499561309814 -0.37241584062576294 0.5139023065567017 -0.8226464986801147  738318.7462243967
0.5729621648788452 -0.5859238505363464 0.5027417540550232 -0.37291035056114197 0.5189456939697266 -0.8288964033126831  738318.746224628
0.5737085938453674 -0.5852506160736084 0.502117931842804 -0.1633853167295456 0.7230164408683777 -0.7831079363822937  738318.746225134
0.573948323726654 -0.5851467847824097 0.5013848543167114 -0.11296602338552475 0.6812682151794434 -0.7669529914855957  738318.7462254226
0.5741899609565735 -0.5846733450889587 0.5014239549636841 -0.10711284726858139 0.7806418538093567 -0.7488146424293518  738318.7462255383
0.5742925405502319 -0.5844336748123169 0.5014317631721497 -0.13876640796661377 0.8020342588424683 -0.7484094500541687  738318.7462257805
0.5743812918663025 -0.584191620349884 0.5014608502388 -0.1547948122024536 0.7770751118659973 -0.7339098453521729  738318.7462258958
0.571012020111084 -0.5841379165649414 0.4993351399898529 -0.1760171502828598 0.8250373601913452 -0.740871012210846  738318.7462261152
0.5708715915679932 -0.5837639570236206 0.4992653429508209 -0.19288815557956696 0.9545730948448181 -0.7457090616226196  738318.7462264
0.5734549760818481 -0.5842238068580627 0.49932989478111267 -0.11881545931100845 1.0339579582214355 -0.721473217010498  738318.7462266424
0.573865532875061 -0.584087610244751 0.4993290901184082 -0.05300387367606163 1.0170480012893677 -0.708155632019043  738318.7462267578
0.5736880898475647 -0.5835829973220825 0.4993640184402466 0.023624280467629433 0.8212470412254333 -0.7207739353179932  738318.7462268731
0.5735855102539062 -0.5833366513252258 0.49802708625793457 0.020390745252370834 0.8251716494560242 -0.7218219637870789  738318.7462270351
0.5762267112731934 -0.584041178226471 0.49839046597480774 0.00547165097668767 0.6801131963729858 -0.7262081503868103  738318.7462272425
0.5757623910903931 -0.5831665992736816 0.49699297547340393 0.03711206838488579 0.7923763990402222 -0.6940073370933533  738318.7462277353
0.5739192962646484 -0.5828202962875366 0.4969383478164673 0.04225597903132439 0.9180257320404053 -0.6967637538909912  738318.7462279312
0.5736961960792542 -0.5831099152565002 0.49774685502052307 0.08792950212955475 1.0087840557098389 -0.6867011189460754  738318.7462281506
0.5731865167617798 -0.5827367305755615 0.49792858958244324 0.19660785794258118 1.0050601959228516 -0.6937170624732971  738318.746228324
0.5750398635864258 -0.5843696594238281 0.4985690712928772 0.39124158024787903 1.1287987232208252 -0.7066420316696167  738318.7462285084
0.5746020674705505 -0.5827873945236206 0.496614009141922 0.5929914712905884 1.0831693410873413 -0.6913660168647766  738318.7462287163
0.5738374590873718 -0.5826419591903687 0.4960847496986389 0.7180772423744202 1.2362805604934692 -0.683237612247467  738318.7462289126
0.573030412197113 -0.5823876857757568 0.49630746245384216 0.7987067699432373 1.2102861404418945 -0.7016072273254395  738318.7462290974
0.5721998810768127 -0.5821995735168457 0.4966489374637604 0.8424285054206848 1.3681262731552124 -0.6957775950431824  738318.746229305
0.5730099081993103 -0.5832316875457764 0.4964788854122162 0.919370710849762 1.3221698999404907 -0.6839463114738464  738318.746229559
0.571456253528595 -0.5832048058509827 0.49745869636535645 0.9547145962715149 1.2693758010864258 -0.6965598464012146  738318.746229929
0.5677801966667175 -0.5827881693840027 0.49774232506752014 0.9397326111793518 1.3029096126556396 -0.7174410820007324  738318.7462301136
0.5668599009513855 -0.5828734636306763 0.498084157705307 0.9181950092315674 1.3764172792434692 -0.7232472896575928  738318.7462302754
0.5658401846885681 -0.5827393531799316 0.4988766610622406 0.8856499195098877 1.274032711982727 -0.7525740265846252  738318.7462304945
0.5675220489501953 -0.5839817523956299 0.5028618574142456 0.8484881520271301 1.1341254711151123 -0.7657407522201538  738318.7462306792
0.5659739375114441 -0.5844177603721619 0.5031716227531433 0.8852638006210327 0.8755884170532227 -0.7806241512298584  738318.7462309336
0.5645790100097656 -0.5849305987358093 0.5041848421096802 0.8773322105407715 0.8248781561851501 -0.8160127401351929  738318.7462310952
0.563774824142456 -0.5851215720176697 0.5046759247779846 0.8968117833137512 0.7651269435882568 -0.8297049403190613  738318.7462313375
0.5624909400939941 -0.5854631662368774 0.5043350458145142 0.8113589882850647 0.6189935207366943 -0.863738477230072  738318.7462315569
0.5617294907569885 -0.586188554763794 0.50468909740448 0.764984667301178 0.6483659148216248 -0.8711657524108887  738318.746231857
0.5630062818527222 -0.5877187848091125 0.5058797597885132 0.6797536611557007 0.3600800931453705 -0.8602248430252075  738318.746231857
0.5612134337425232 -0.588370680809021 0.5064191222190857 0.46783149242401123 0.37727734446525574 -0.8956949710845947  738318.7462319796
0.5608619451522827 -0.5885242223739624 0.5066868662834167 0.3901428282260895 0.30466920137405396 -0.9141448736190796  738318.7462320047
0.5582714080810547 -0.5894764065742493 0.5075852870941162 0.25707104802131653 0.32912275195121765 -0.9560102224349976  738318.7462322125
0.5576106309890747 -0.5899568200111389 0.5078252553939819 0.16835123300552368 0.3333424925804138 -0.9595177173614502  738318.7462322933
0.5592824816703796 -0.5914884209632874 0.5091994404792786 0.060086946934461594 0.12545017898082733 -0.9857134222984314  738318.7462324549
0.5572909712791443 -0.5925583243370056 0.5098055601119995 -0.05030548945069313 0.10925222933292389 -1.0300195217132568  738318.7462329513
0.5568342208862305 -0.5926721096038818 0.5100151300430298 -0.07508254796266556 0.05675404518842697 -1.0307995080947876  738318.7462331706
0.555359423160553 -0.5933526158332825 0.507825493812561 -0.18368637561798096 0.006888324394822121 -1.0633658170700073  738318.7462332284
0.5552119612693787 -0.5927805304527283 0.5079033374786377 -0.2586281895637512 -0.0013343860628083348 -1.0682822465896606  738318.7462332507
0.5544285178184509 -0.5931403636932373 0.5079720616340637 -0.3160165548324585 -0.019231317564845085 -1.0619182586669922  738318.7462335161
0.5537660717964172 -0.5936965942382812 0.507628858089447 -0.3635488450527191 -0.016725247725844383 -1.068346381187439  738318.7462336662
0.5550370812416077 -0.5958672165870667 0.5080603361129761 -0.41872623562812805 0.07828529179096222 -1.0694807767868042  738318.7462339317
0.5534689426422119 -0.5963737964630127 0.5075463056564331 -0.32865360379219055 0.15142449736595154 -1.109907627105713  738318.7462342319
0.5525820851325989 -0.5972126722335815 0.5074757933616638 -0.28853827714920044 0.1411457061767578 -1.1243302822113037  738318.7462344453
0.5515793561935425 -0.5975683927536011 0.5060172080993652 -0.2518555521965027 0.24709650874137878 -1.1481372117996216  738318.7462345723
0.5511692762374878 -0.5979130268096924 0.5058737397193909 -0.2341608852148056 0.22712451219558716 -1.163054347038269  738318.7462347454
0.5517558455467224 -0.599990963935852 0.5060303807258606 -0.3836829662322998 0.23663122951984406 -1.252781867980957  738318.7462348031
0.5507096648216248 -0.600560188293457 0.5046238303184509 -0.47613850235939026 0.25257954001426697 -1.2808692455291748  738318.7462352302
0.5500968098640442 -0.6007593274116516 0.5044403076171875 -0.5256790518760681 0.12956470251083374 -1.288865089416504  738318.7462355433
0.5486311316490173 -0.6011840105056763 0.5041011571884155 -0.6687592267990112 0.036644455045461655 -1.295172929763794  738318.7462355662
0.5482943058013916 -0.6015417575836182 0.5037671327590942 -0.8054935932159424 0.06157032400369644 -1.3055071830749512  738318.7462357283
0.5470812320709229 -0.6023792624473572 0.5035260319709778 -0.9017755389213562 -0.05695755034685135 -1.3143988847732544  738318.7462359588
0.5496755838394165 -0.603904128074646 0.5039601922035217 -0.9371563196182251 -0.11070763319730759 -1.3128819465637207  738318.7462360741
0.5477800965309143 -0.6048796772956848 0.5038961172103882 -0.9649268388748169 -0.3063722252845764 -1.3070776462554932  738318.7462364205
0.5472924113273621 -0.6051934361457825 0.503152072429657 -0.9989750981330872 -0.3244614601135254 -1.2943696975708008  738318.7462365936
0.5467627048492432 -0.6053330898284912 0.5031373500823975 -1.0475516319274902 -0.33082664012908936 -1.3051526546478271  738318.746236705
0.5463529825210571 -0.6061769723892212 0.5031405687332153 -1.055877447128296 -0.3400876522064209 -1.3093434572219849  738318.7462369819
0.5454226136207581 -0.6066290736198425 0.503494918346405 -0.9890530705451965 -0.2642742693424225 -1.288313627243042  738318.7462371666
0.5488095283508301 -0.6080556511878967 0.5039042234420776 -0.9551154375076294 -0.4101845324039459 -1.2842521667480469  738318.7462372243
0.5476155877113342 -0.6077521443367004 0.5006980895996094 -0.9910276532173157 -0.23984003067016602 -1.2707583904266357  738318.7462375822
0.547241747379303 -0.6081550717353821 0.5005990266799927 -0.9727229475975037 -0.19455592334270477 -1.275903344154358  738318.7462379171
0.5462600588798523 -0.6086826920509338 0.5003857612609863 -0.9736817479133606 -0.19697904586791992 -1.2788232564926147  738318.746238136
0.5458725094795227 -0.6081190705299377 0.5016695261001587 -1.050491452217102 -0.13600589334964752 -1.2641258239746094  738318.7462383668
0.5453288555145264 -0.6084190011024475 0.5016822218894958 -1.0360047817230225 -0.09715689718723297 -1.252671480178833  738318.7462384246
0.5475075244903564 -0.610694169998169 0.5006371736526489 -1.0015933513641357 -0.23278561234474182 -1.3058394193649292  738318.7462388402
0.546968936920166 -0.6106814742088318 0.5006800293922424 -1.0744835138320923 -0.2603430151939392 -1.2820842266082764  738318.7462388979
0.5472266674041748 -0.6099650263786316 0.5007423758506775 -1.1678417921066284 -0.37053462862968445 -1.2520512342453003  738318.7462389211
0.5467082858085632 -0.6100353598594666 0.5017116665840149 -1.3190526962280273 -0.28242865204811096 -1.2338002920150757  738318.7462391633
0.5501337647438049 -0.6107317209243774 0.5022552013397217 -1.3982926607131958 -0.4206794798374176 -1.192591667175293  738318.7462394404
0.5499364733695984 -0.6106322407722473 0.5023890733718872 -1.3905869722366333 -0.4397293031215668 -1.1867480278015137  738318.7462395674
0.5498950481414795 -0.6101318001747131 0.5030300617218018 -1.3298230171203613 -0.370896577835083 -1.1467995643615723  738318.7462399136
0.5498398542404175 -0.6099011301994324 0.503233015537262 -1.3075371980667114 -0.35760003328323364 -1.1305807828903198  738318.7462399948
0.5493285655975342 -0.6094185709953308 0.5034380555152893 -1.2701512575149536 -0.31459158658981323 -1.1118547916412354  738318.7462402139
0.5492202043533325 -0.608853816986084 0.5019804239273071 -1.2582453489303589 -0.22435292601585388 -1.0935184955596924  738318.7462403523
0.5479291081428528 -0.6094201803207397 0.5021111369132996 -1.223588466644287 -0.15821869671344757 -1.0934284925460815  738318.7462404215
0.54767906665802 -0.6091397404670715 0.5022474527359009 -1.224484920501709 -0.0763770118355751 -1.072749376296997  738318.7462406524
0.5499650239944458 -0.6084029674530029 0.5018584132194519 -1.265796422958374 0.07043147087097168 -1.0660585165023804  738318.7462413228
0.5497149229049683 -0.608181893825531 0.502086877822876 -1.2007793188095093 0.11548221856355667 -1.0355644226074219  738318.7462413228
0.5495321750640869 -0.6068691611289978 0.5029593706130981 -1.0108951330184937 0.17466196417808533 -1.01091730594635  738318.7462415652
0.5494394302368164 -0.6063846349716187 0.5030746459960938 -0.8957284688949585 0.16380645334720612 -1.004856824874878  738318.746241623
0.5491807460784912 -0.60695880651474 0.503296434879303 -0.694521427154541 0.17142969369888306 -0.983721137046814  738318.7462418538
0.5491966009140015 -0.6060571670532227 0.5029260516166687 -0.5332897305488586 0.09276796877384186 -0.9535470604896545  738318.7462419808
0.5534151792526245 -0.6038931012153625 0.5028599500656128 -0.5687942504882812 0.045913442969322205 -0.8794202208518982  738318.746242316
0.5535028576850891 -0.6032439470291138 0.5028703212738037 -0.548257052898407 0.025317177176475525 -0.8734405040740967  738318.7462423733
0.5534750819206238 -0.6018063426017761 0.5021378993988037 -0.585574746131897 0.06667906790971756 -0.8443174362182617  738318.7462424056
0.5569794774055481 -0.6024003028869629 0.5025123357772827 -0.5761234760284424 -0.08431344479322433 -0.8293254971504211  738318.7462425672
0.5572969317436218 -0.6007875204086304 0.4992188513278961 -0.5043916702270508 -0.009052966721355915 -0.805596113204956  738318.7462429481
0.5580434203147888 -0.5985598564147949 0.4989944398403168 -0.4164034128189087 -0.13667313754558563 -0.7824167013168335  738318.7462431213
0.5582314729690552 -0.5975038409233093 0.4988851845264435 -0.4019867777824402 -0.11966278403997421 -0.7608330249786377  738318.7462433407
0.558513343334198 -0.5971471071243286 0.4992067515850067 -0.42038694024086 -0.12266971170902252 -0.7442858219146729  738318.74624356
0.5615121126174927 -0.5967473983764648 0.4995967447757721 -0.4371873140335083 -0.18310701847076416 -0.7203159332275391  738318.7462436523
0.5625121593475342 -0.5933130383491516 0.4987175464630127 -0.3837572932243347 -0.06671661883592606 -0.6673814058303833  738318.7462439128
0.5631846785545349 -0.5946179032325745 0.4987892210483551 -0.32343611121177673 0.011186191812157631 -0.6457945108413696  738318.7462440744
0.5634119510650635 -0.5934142470359802 0.498794287443161 -0.28584203124046326 0.0023232155945152044 -0.6190119385719299  738318.7462443168
0.5637258291244507 -0.5928472876548767 0.4988361895084381 -0.2707594931125641 0.027930861338973045 -0.6134433746337891  738318.7462445246
0.5667721033096313 -0.5911855697631836 0.5000951290130615 -0.21094168722629547 0.07096313685178757 -0.5527397394180298  738318.7462448392
0.5668482184410095 -0.5897604823112488 0.5009130239486694 -0.14472530782222748 0.34115761518478394 -0.5217540264129639  738318.7462451624
0.5671711564064026 -0.5882956981658936 0.5013046264648438 -0.0154182193800807 0.4492712616920471 -0.5092997550964355  738318.7462453356
0.5672473907470703 -0.5871734619140625 0.4997430443763733 0.076947882771492 0.5425978302955627 -0.49150529503822327  738318.7462455549
0.5704665184020996 -0.5869194269180298 0.5003340244293213 0.16324803233146667 0.5480035543441772 -0.4837947189807892  738318.7462457395
0.5711163282394409 -0.5848166942596436 0.498088538646698 0.3378700315952301 0.669369637966156 -0.4813792109489441  738318.7462461321
0.5715235471725464 -0.5837733745574951 0.4979891777038574 0.41943877935409546 0.588326096534729 -0.4663543105125427  738318.7462462821
0.5711461901664734 -0.583165168762207 0.49790647625923157 0.42348241806030273 0.6288449764251709 -0.46615371108055115  738318.7462464783
0.5718279480934143 -0.582090437412262 0.49734482169151306 0.4078686833381653 0.6235658526420593 -0.46386009454727173  738318.7462466515
0.5720975995063782 -0.5809242725372314 0.49710723757743835 0.3840230107307434 0.6462740898132324 -0.4815968871116638  738318.7462467042
0.5742406249046326 -0.5811591148376465 0.4973471760749817 0.32947754859924316 0.707801878452301 -0.4899144470691681  738318.7462468194
0.5746563076972961 -0.5801441073417664 0.49718156456947327 0.35877323150634766 0.5962639451026917 -0.49526649713516235  738318.7462471194
0.5745872259140015 -0.5796376466751099 0.4970928430557251 0.35707738995552063 0.6473397612571716 -0.49519312381744385  738318.7462471466
0.5747621655464172 -0.5786184668540955 0.4980629086494446 0.3828161656856537 0.6548229455947876 -0.49736708402633667  738318.746247366
0.5746745467185974 -0.5777974128723145 0.4980415105819702 0.41258713603019714 0.6544414758682251 -0.5071618556976318  738318.7462476661
0.5762195587158203 -0.5788686275482178 0.4972483515739441 0.5780678391456604 0.6953145265579224 -0.4728468656539917  738318.7462478392
0.5762765407562256 -0.5776815414428711 0.49725285172462463 0.6000347137451172 0.6837899684906006 -0.46047788858413696  738318.7462481625
0.5760999917984009 -0.5772154927253723 0.49733585119247437 0.6109340786933899 0.7509268522262573 -0.46758052706718445  738318.7462481868
0.5759866833686829 -0.5761837363243103 0.49779489636421204 0.6314495801925659 0.7885567545890808 -0.4771328568458557  738318.7462483599
0.5755653977394104 -0.5760999321937561 0.4979531466960907 0.6829686760902405 0.8131967782974243 -0.480979323387146  738318.7462485908
0.577454149723053 -0.5755184888839722 0.4985894560813904 0.706303060054779 0.8558471202850342 -0.4757946729660034  738318.7462489833
0.5771658420562744 -0.5745612978935242 0.49937164783477783 0.6603201627731323 0.7513773441314697 -0.4609077572822571  738318.7462492603
0.5770561099052429 -0.5743139982223511 0.4988476037979126 0.5702177286148071 0.733230471611023 -0.46002480387687683  738318.7462495521
0.5770129561424255 -0.5736854076385498 0.4990435242652893 0.5351867079734802 0.6050742864608765 -0.4543365240097046  738318.7462495753
0.5762074589729309 -0.5735769271850586 0.49939703941345215 0.3975718319416046 0.5605035424232483 -0.4527769386768341  738318.7462498753
0.5758242011070251 -0.5731257796287537 0.49997153878211975 0.35974863171577454 0.4915887415409088 -0.46230196952819824  738318.7462499446
0.575619637966156 -0.5729095935821533 0.5001636147499084 0.33023831248283386 0.46966373920440674 -0.4569353759288788  738318.746250106
0.5781005620956421 -0.5722545385360718 0.501648485660553 0.2997971177101135 0.35268765687942505 -0.4670644700527191  738318.7462505919
0.5775251388549805 -0.5721455216407776 0.5022350549697876 0.2669660747051239 0.38608965277671814 -0.47773420810699463  738318.7462506035
0.5773141980171204 -0.5717733502388 0.5028018355369568 0.27223581075668335 0.4140941798686981 -0.4770946502685547  738318.7462509383
0.5770373940467834 -0.5715427398681641 0.5033174753189087 0.2731764018535614 0.41073665022850037 -0.4917861223220825  738318.7462510191
0.578188955783844 -0.5719374418258667 0.5040755867958069 0.330002099275589 0.40550342202186584 -0.49676474928855896  738318.7462511922
0.5776031017303467 -0.571710467338562 0.5031903982162476 0.3441712260246277 0.35872602462768555 -0.49980980157852173  738318.7462515847
0.5773338079452515 -0.5710898637771606 0.503685712814331 0.3036990761756897 0.3338325619697571 -0.5024160742759705  738318.7462517477
0.5772889256477356 -0.5709523558616638 0.5038534998893738 0.2842961549758911 0.30201956629753113 -0.5175780653953552  738318.7462517822
0.5770665407180786 -0.5708321332931519 0.5040069222450256 0.21368098258972168 0.24271267652511597 -0.5125684142112732  738318.746251967
0.5782324075698853 -0.5714799761772156 0.5046045184135437 0.19197966158390045 0.18628402054309845 -0.5216839909553528  738318.7462521516
0.5777407288551331 -0.571306586265564 0.5048280954360962 -0.053424835205078125 -0.012244091369211674 -0.5349701642990112  738318.7462526249
0.5778610110282898 -0.5713559985160828 0.5051522254943848 -0.19839590787887573 -0.08981598913669586 -0.5404548048973083  738318.7462527751
0.5774575471878052 -0.5710332989692688 0.5036947727203369 -0.289298951625824 -0.14956124126911163 -0.5566521883010864  738318.7462529042
0.5771912336349487 -0.5704598426818848 0.5038178563117981 -0.3992442786693573 -0.22724592685699463 -0.5466908812522888  738318.7462529042
0.5765540599822998 -0.570681631565094 0.5035153031349182 -0.38532641530036926 -0.1885164976119995 -0.5538105964660645  738318.7462529313
0.5783669948577881 -0.5709052681922913 0.5038948059082031 -0.3582451641559601 -0.23499339818954468 -0.5675451159477234  738318.7462533085
0.5778912901878357 -0.5700943470001221 0.5028399229049683 -0.2684883177280426 -0.19083037972450256 -0.5730084180831909  738318.7462536432
0.5777008533477783 -0.5703890323638916 0.50284343957901 -0.2911042273044586 -0.19795803725719452 -0.5712829828262329  738318.746253828
0.5777080655097961 -0.5699656009674072 0.5028489828109741 -0.32882165908813477 -0.24508315324783325 -0.5694409012794495  738318.7462541163
0.5776799917221069 -0.5695553421974182 0.5012388825416565 -0.3931798040866852 -0.2835371494293213 -0.5790414214134216  738318.7462544049
0.578872561454773 -0.5696401000022888 0.5015085339546204 -0.5382680892944336 -0.376428484916687 -0.5987755060195923  738318.7462544626
0.5789701342582703 -0.5688555836677551 0.49964639544487 -0.6992651224136353 -0.5226392149925232 -0.609265923500061  738318.7462548667
0.5789944529533386 -0.5688303709030151 0.49952518939971924 -0.7795345783233643 -0.5560461282730103 -0.6089093685150146  738318.7462549247
0.5784347653388977 -0.5684530138969421 0.49927806854248047 -0.9007986187934875 -0.6087963581085205 -0.5976221561431885  738318.7462551668
0.5785893201828003 -0.5680108070373535 0.49933260679244995 -0.9473869800567627 -0.558855414390564 -0.6056523323059082  738318.7462552245
0.578876793384552 -0.5672972798347473 0.49909594655036926 -0.9057652950286865 -0.4175698459148407 -0.5921168923377991  738318.746255467
0.5811582803726196 -0.5677716135978699 0.49942246079444885 -0.7711389660835266 -0.5417336821556091 -0.6475153565406799  738318.7462556863
0.5814718008041382 -0.5670258402824402 0.5002443790435791 -0.7004947662353516 -0.42608341574668884 -0.6120951771736145  738318.746256044
0.5816357135772705 -0.5667212605476379 0.5002567172050476 -0.7235410809516907 -0.4445064961910248 -0.5951282382011414  738318.7462562057
0.5818078517913818 -0.5664166212081909 0.497857004404068 -0.7525913715362549 -0.49639132618904114 -0.5902397632598877  738318.7462563673
0.5821760892868042 -0.5657447576522827 0.49772077798843384 -0.8964055180549622 -0.5371001958847046 -0.5787637233734131  738318.7462563887
